ply
format ascii 1.0
comment VCGLIB generated
element vertex 1634
property float x
property float y
property float z
element face 0
property list uchar int vertex_indices
end_header
-1.761601 40.08505 6.372957 
35.48044 -11.70904 22.21262 
40.71674 15.39851 -6.297254 
-62.95094 -23.57768 2.452366 
-66.69508 -10.82212 15.62653 
19.14262 0.2841514 26.22646 
37.10108 -3.563775 -20.55061 
-24.1583 -21.52908 -11.13318 
1.987692 -24.67136 11.30254 
40.16765 19.85066 25.02048 
41.53438 -4.569802 -13.14648 
-21.41385 -24.27074 -8.688337 
51.19872 -16.97719 -9.618977 
-0.1104807 -11.54233 18.61245 
49.07387 -30.67733 -8.200916 
-47.11935 -29.61082 7.951624 
14.45421 24.81858 18.46163 
-36.07258 33.67788 1.703376 
-56.59519 -26.59003 -3.446197 
-38.55213 -14.24237 21.92112 
22.54057 10.07223 30.23389 
32.3359 -30.61085 9.447917 
-8.516982 26.00813 -16.01726 
-23.94315 16.51907 11.03289 
-9.88786 9.232673 -19.42311 
38.25996 -34.37524 -5.539114 
33.88148 16.03128 -18.55862 
29.08301 40.79664 -2.184871 
-64.47272 -13.96546 -12.06556 
0.9869738 -0.2592152 -29.2181 
12.86533 -46.18003 -2.185205 
-62.94087 -8.795929 15.24621 
-50.82025 -25.2477 14.15627 
18.0939 32.68814 -15.62521 
11.8329 -9.158882 22.15423 
-51.30427 25.90544 -0.3062847 
-7.328551 5.157218 -21.73742 
-29.87509 37.58047 -8.629491 
8.612949 -33.65242 8.201935 
37.78735 16.5382 28.51403 
53.33921 -18.17358 -9.220587 
-52.72726 -15.06405 21.20142 
-45.31761 23.54557 -7.958219 
-0.7794723 -6.294855 23.61524 
-9.223961 -16.80214 -18.50668 
24.95824 47.98518 -1.292832 
-70.39594 -5.291492 10.00126 
16.53243 45.98991 5.903702 
10.47194 -14.59314 -25.43922 
-14.71391 19.33832 13.24594 
26.38259 44.05348 3.050757 
-16.87974 -18.22204 -17.95688 
-61.9773 -10.84096 17.61557 
-18.22356 -21.0241 14.79862 
28.84473 30.30738 -12.17265 
8.962758 -7.422551 23.26442 
-2.894769 26.58966 14.8387 
-15.93893 15.24168 13.81356 
56.23438 -24.00885 0.525722 
-21.2706 1.14123 19.8929 
7.618898 47.15125 2.083658 
40.56425 27.77856 4.160783 
3.51676 -24.5399 12.42142 
-35.15247 9.392822 -10.75819 
-26.59198 5.232624 16.27418 
43.62578 0.1498198 -7.85026 
-60.56194 -11.13297 18.59033 
41.22617 23.70579 13.94175 
-19.42634 -19.81755 -16.21285 
-65.54194 -10.89523 -10.52345 
13.61212 -17.89794 -23.43366 
-6.809377 41.08538 3.297985 
41.55124 -30.65684 -10.28123 
11.21806 -2.04882 26.75961 
8.993955 -28.78141 10.83969 
19.70702 34.26821 8.235621 
31.47714 -26.10551 12.19934 
46.00506 -12.46231 -10.42938 
47.12858 -30.7141 -8.636911 
-63.87228 -22.77727 4.266655 
-59.63767 9.31901 -0.9295408 
3.98218 -16.58385 15.13331 
42.48103 18.92541 10.86796 
-32.54041 -7.877423 20.59495 
-0.9994026 32.72842 -16.38733 
45.6044 -37.83572 -1.892432 
-28.18029 32.84894 4.116482 
-10.23045 -27.56037 -8.857059 
11.25925 -24.38217 13.21153 
-7.085623 1.384982 25.57458 
-32.27668 1.031026 17.17023 
26.60648 -1.889622 -27.09711 
-32.94341 10.10941 11.23755 
49.38144 -4.424057 8.027758 
-28.61388 42.92094 -4.381074 
25.60695 -41.31403 1.81826 
-6.463584 -40.67683 -1.343263 
-51.32395 -16.10468 20.57997 
-21.12129 44.20006 -6.462781 
6.339476 -33.42457 -14.17178 
-3.743888 36.03749 8.049764 
29.09683 39.5794 -3.771247 
27.7778 13.35758 28.64565 
52.29003 -20.90377 -11.64821 
-49.34525 23.86299 2.402141 
46.34834 -22.3683 13.81268 
-12.34012 -32.01303 0.6941187 
57.32238 -28.2499 -4.918669 
43.37436 -38.17031 -1.040003 
-4.156882 -5.378788 24.01975 
35.06583 -3.293682 -23.75882 
-3.565006 -18.45945 13.92209 
-58.70686 -11.2973 19.67592 
21.27195 9.182198 -24.39153 
6.650014 49.55024 -0.5655287 
-2.394436 33.0722 11.041 
-64.63594 -22.77397 -4.408168 
49.70082 -33.48465 -6.166471 
-12.01951 8.556389 -18.27988 
-34.48668 8.048495 12.34391 
3.234479 -41.67641 3.027364 
-39.63158 -28.76497 3.340398 
45.028 -25.79455 -14.59487 
50.7125 -8.045714 3.491417 
18.18158 -13.1242 19.89105 
-58.23343 -1.759552 11.09861 
-44.4047 -16.39647 -16.11485 
11.85743 24.15834 -17.88527 
24.62015 31.9736 -15.93066 
-41.21158 8.016455 9.579866 
-21.4906 9.30602 -14.78667 
46.24775 7.827993 9.497803 
7.040099 50.48112 -2.260244 
-16.21881 6.524915 17.58294 
-40.65005 11.55159 7.229772 
19.42217 -2.98497 -30.06296 
-53.00836 -24.92653 14.51133 
55.90804 -22.55994 -1.586025 
11.2268 7.960288 -27.3 
35.60928 12.23717 -15.44702 
42.81741 19.21803 -2.154249 
20.49226 -18.41438 -22.98059 
29.23134 33.04921 -9.845204 
-67.3329 -18.55969 -6.270668 
-50.70021 -19.88652 -12.4039 
-40.30378 -23.5713 -4.304219 
2.442387 -20.24094 -18.62769 
26.89013 37.83489 4.802728 
12.2071 20.22401 21.43752 
45.66162 -6.749115 -8.156102 
-51.51148 -14.38123 -15.72899 
49.1824 -12.70457 18.62063 
-52.48521 -28.92355 1.781001 
4.73144 -15.54456 -23.78558 
18.36713 10.20168 29.64369 
41.80341 23.96027 -1.008419 
-61.37981 -23.37296 14.43962 
-56.42988 -24.76105 -6.087518 
-2.815255 44.5315 1.381671 
1.0116 -40.6754 4.092389 
28.91038 -22.34226 14.51146 
-35.02626 39.09917 -2.880903 
22.16365 -40.87828 2.197835 
3.97507 -11.77259 -26.79837 
-45.01139 7.596434 -9.540944 
-0.787038 49.33865 -5.477175 
-23.64374 -19.61019 -14.9688 
-66.27458 -21.74005 8.623973 
23.42362 45.07489 3.242373 
-64.21126 -5.308389 -10.49667 
-26.49116 -21.55534 -10.31059 
51.02589 -30.17109 9.680071 
-2.762914 8.817515 -22.9684 
14.743 -39.49371 -10.88357 
35.07617 7.989877 31.69476 
26.12259 36.69923 -12.23943 
26.00364 -9.626208 23.51523 
40.91408 18.03192 23.55078 
-12.3845 43.60688 -7.308619 
-8.973462 -25.49192 -12.23567 
-16.21061 -4.336977 -20.33168 
-47.49229 -9.282562 21.33129 
9.072469 -13.33565 19.11017 
-0.6524001 -11.03308 -26.97829 
26.04484 -3.241724 -28.41199 
52.64829 -18.91689 14.36819 
-54.4504 17.90847 -8.580727 
11.79021 -47.56287 -6.306939 
-29.13248 -17.89574 17.43348 
7.41046 -0.09004885 28.15582 
-36.6659 5.832876 13.26904 
-2.562385 -33.6363 8.288153 
23.47726 30.32534 11.69058 
1.256455 -6.598976 -30.93858 
-42.23038 2.891734 -11.47792 
42.32838 -24.98437 -16.31835 
-70.30916 -5.858702 -8.65471 
35.89178 -27.35595 -17.44022 
-3.859336 -41.92483 -2.019903 
-0.1789385 -27.39132 10.24241 
20.24597 50.07384 -8.670237 
11.226 36.27928 -17.29371 
43.85147 13.67136 0.955116 
-46.6404 22.3397 -8.486484 
-18.14178 -25.82803 10.21444 
-67.74906 -12.56355 16.43133 
11.70394 34.54788 9.411411 
30.24699 -36.01242 -10.42746 
42.63218 1.53785 -8.384571 
-38.46166 -23.02111 -4.041894 
25.44878 39.65134 -11.3059 
-36.43585 12.65134 -9.171317 
-8.737528 -15.47284 -19.71909 
11.89945 -34.75823 7.336271 
-12.59 45.49498 -0.5485561 
24.21009 -18.77014 -24.03423 
20.27291 19.86986 -20.95106 
-67.74807 -21.4796 9.825464 
6.777417 -26.26208 -17.65306 
-44.56231 -14.58349 -16.59972 
-48.43431 24.51 -6.298535 
-43.13946 16.08201 -10.01248 
8.696015 50.41739 -3.281646 
-4.108617 -4.522511 -28.49315 
-40.17976 25.57074 -7.881967 
15.56101 -28.97777 11.21638 
44.04448 -24.05426 -16.32442 
-10.71245 -25.46989 -11.73195 
43.45091 11.12698 20.49762 
-4.124608 -42.67843 0.04857387 
-6.073003 -19.49082 14.55433 
53.11374 -14.62372 1.143629 
-8.978852 -5.400571 -24.82244 
-4.396935 48.46118 -6.715025 
-24.49383 43.49546 -6.362023 
47.8824 5.211824 3.409188 
-54.58861 -12.36133 -15.35073 
16.42929 -39.09598 2.961844 
-28.29357 0.3898396 18.3825 
7.59918 37.40133 -16.71471 
4.484298 37.13573 -16.04926 
22.43294 50.83356 -6.175835 
24.51152 3.503231 27.92955 
-8.09946 -4.926307 24.04047 
49.35182 -4.564185 -0.6412706 
-11.2816 46.70556 -0.8316697 
0.5176976 -19.18212 13.01371 
19.51731 7.61396 28.57189 
4.739923 15.04004 -22.77386 
0.7931904 -32.91481 -13.08108 
-52.35383 13.06466 4.333033 
23.57177 33.45166 7.905303 
-36.28961 -6.746785 -15.29416 
29.63324 -23.87623 13.34504 
15.78603 -24.27068 -20.15077 
37.32784 17.33407 -11.64693 
-0.1347905 -22.13301 -16.01511 
-27.99369 24.70786 7.404927 
34.43229 -36.58945 5.924815 
-17.73141 -21.50945 -14.75951 
35.20955 13.30977 -17.69328 
38.24139 -17.19804 18.37589 
-32.72477 27.58158 6.44071 
-5.234629 -14.37431 16.77499 
-14.82422 39.22893 -10.16397 
7.145051 25.63816 16.14026 
-50.14731 -14.86035 21.60404 
-47.60221 16.01235 -11.09732 
-34.99988 -22.02309 -5.408152 
15.0778 -44.58395 -0.6920253 
8.926668 -36.79816 6.225342 
15.27685 28.2873 14.53832 
-25.86722 22.69956 8.602843 
31.45282 -26.40541 -19.37679 
-56.43627 -4.045119 -12.0327 
-43.18079 -12.25775 22.37043 
-40.39063 -14.31405 21.8515 
46.17897 -18.39893 16.3501 
-32.25601 -27.93961 10.42337 
30.51111 -36.67902 5.361423 
-27.45597 -27.06822 3.70558 
47.02921 -0.6320997 17.21672 
22.83491 32.39706 9.170568 
9.164081 35.78604 -17.88426 
10.83408 -0.4614873 27.55459 
44.63972 7.68859 18.32028 
26.08496 -6.51176 25.22969 
-44.6528 12.97142 -9.753079 
42.66364 20.28362 3.066202 
44.93005 -16.18374 -15.63961 
33.40157 26.87892 -7.936026 
19.13196 52.6477 -6.666372 
-71.08411 4.18752 -5.991355 
-55.0517 -13.67875 21.7746 
-20.96146 -26.03791 9.977099 
14.47623 -47.43793 -3.293082 
-63.3451 -17.03348 -9.760828 
13.16611 2.766171 28.80686 
-34.84978 -19.84303 -11.37954 
-62.34791 -24.70243 12.21306 
14.12044 23.63569 -18.51498 
29.77535 -21.06834 15.4771 
23.50989 -14.13462 19.87336 
32.63358 17.33558 -18.64109 
14.34528 -30.7832 -17.09942 
-53.35503 1.974001 8.991743 
-55.68925 4.744567 5.269436 
34.95756 10.98557 -14.18536 
7.061472 -34.68028 7.387885 
50.6807 -6.238916 2.974665 
-63.3608 1.827065 4.051254 
-28.69913 -6.486266 20.40019 
11.3627 -33.98892 -15.02309 
5.967191 -16.87542 -23.22113 
-14.02915 12.43952 15.50642 
43.19924 10.71242 22.47096 
46.74594 -35.30964 -5.283847 
-14.28294 0.3935926 -19.35093 
-1.22295 46.25541 0.5009174 
-13.14175 33.37965 -12.07977 
-11.20248 -16.4459 -18.2257 
49.14005 -2.682773 0.1935132 
-63.10309 -8.511349 -11.42521 
46.08433 -27.84876 9.908093 
24.58846 22.19157 21.085 
-20.33888 7.13847 -15.8294 
-42.35883 -29.14767 9.277283 
-70.04963 -14.49594 -4.414564 
14.0545 27.26155 15.58773 
13.10211 46.63495 5.084335 
5.821205 -22.46115 -18.67306 
23.61559 41.64599 4.178233 
19.05914 -28.12138 11.74065 
8.312368 11.21927 -25.62561 
4.824074 -26.5674 12.30906 
3.250585 -39.4824 -8.170116 
25.44712 -42.56981 0.1137405 
-11.98036 48.11478 -1.643642 
-4.130235 -26.52925 -11.64743 
-49.02742 -18.70164 -13.23792 
16.18837 -22.31662 -21.1796 
29.44904 -11.97595 -27.39765 
26.87114 -40.65909 -7.721371 
20.23973 38.20664 -14.76035 
-28.4007 12.68617 -12.08779 
-5.127369 28.62243 13.13918 
-6.0914 48.87638 -1.975581 
-28.68502 -16.60922 18.64544 
5.139067 10.8131 27.59169 
36.9563 17.9045 27.21108 
22.97068 2.061807 -26.3563 
-29.51943 -22.76363 -5.445387 
-3.947393 32.9585 10.13769 
-1.919214 28.89751 13.74692 
-67.3113 2.505976 2.266177 
45.31076 -30.92874 8.389439 
33.20428 31.48588 -4.148476 
41.2434 -4.036685 26.39486 
18.89063 -11.66 20.9659 
31.44273 34.03297 -4.118397 
-26.04851 -25.01774 -0.4854662 
56.65662 -24.8737 -9.265053 
-30.95972 -16.1361 19.38862 
31.3642 -40.10876 1.647383 
-58.13426 5.849307 -10.88206 
-11.54081 30.24936 8.56171 
23.13962 -29.87543 -17.10323 
26.36596 30.52509 -15.44697 
0.2456773 37.23293 -14.65322 
-72.20066 -3.525151 -6.924766 
-44.58466 -25.06268 -4.181899 
-2.260637 24.84135 15.54301 
30.39798 26.89356 -12.80623 
47.5011 3.413693 9.100605 
-29.22274 41.87193 -2.67902 
27.56422 14.80266 -21.01908 
-39.92621 -7.65467 21.10981 
28.0827 -3.894138 -28.04859 
20.47624 -11.72219 -25.34989 
38.45078 -1.740726 28.70111 
-3.603773 -1.48164 -27.46712 
2.033581 -43.41449 -4.848329 
-36.8031 -8.674049 21.38378 
47.9229 -1.431417 -0.4065031 
25.44803 -16.93094 17.51238 
-44.37729 -20.01569 -11.77152 
-55.01271 -25.12192 14.0374 
49.72997 -2.678938 5.363932 
-42.81503 31.62983 -3.72118 
15.48197 -5.092882 -28.733 
-2.307937 -17.32302 14.50569 
22.51514 -20.99456 15.07815 
-21.14682 -29.2693 7.01829 
25.9105 -35.08232 5.522664 
-54.53574 -28.6224 10.00294 
-10.20494 -35.54844 -1.492472 
41.61829 -5.595045 25.18708 
-41.0796 -12.25125 22.37382 
0.7819788 35.75715 -16.14432 
-19.33159 29.00141 8.445394 
33.45779 -38.89328 1.967809 
-19.96948 -4.35203 24.762 
9.195765 -35.85733 -12.61469 
35.05176 -8.309352 23.98645 
20.67953 -45.71759 -2.756651 
56.49467 -24.32592 -2.143175 
9.979123 2.336358 29.23521 
6.729074 -13.23703 -25.85177 
-5.971585 37.74723 5.712226 
46.07967 -20.09025 15.52607 
-70.46809 2.586078 -0.1134283 
35.09881 -14.89327 20.24038 
-1.608523 -30.18957 -13.2705 
14.24772 -7.036332 -28.31665 
13.0888 -12.34896 -26.92856 
30.98455 17.36251 25.62646 
15.01487 25.28216 -17.60298 
-46.57252 7.248084 7.427851 
31.77016 35.06263 -2.707344 
-18.32122 -8.09372 24.47891 
-20.97021 8.603292 15.78139 
-64.04517 -21.10939 15.01119 
-19.20348 45.90352 -5.369581 
51.74738 -33.1195 -6.158362 
-55.28588 18.79494 -7.309062 
-24.07571 1.071408 -17.04322 
32.19972 22.15659 21.39866 
-4.617101 31.28691 -15.88906 
17.77125 -41.87151 1.575796 
40.58577 26.14559 4.77689 
13.17315 -40.49242 2.725325 
-34.21109 23.62727 -10.11294 
-26.23223 21.51686 -12.043 
-40.33553 9.605321 -9.665817 
-35.61238 36.51608 -0.2637861 
5.14478 17.96051 -22.23882 
-49.48196 4.6576 8.232079 
33.34707 28.33197 -6.716963 
24.4901 -10.39323 -27.65751 
41.37376 5.787506 28.33219 
30.78789 24.47265 -14.4011 
-53.43834 -4.263593 15.22258 
-1.952426 -42.70961 -1.985052 
-20.44182 -23.7333 -10.63765 
21.41999 5.518405 -25.52198 
-61.32698 3.888194 2.554455 
-17.57257 13.72436 13.70712 
-49.30409 -29.72293 7.434323 
13.44365 33.2979 8.909608 
22.66197 3.763921 -25.81812 
-19.71774 -14.89533 20.22068 
-0.9973938 10.24664 -23.12704 
47.67499 -3.785919 -2.322682 
-11.46975 -34.10944 4.286231 
-51.35506 26.1607 -2.73694 
2.794674 1.135202 29.3548 
45.41111 5.019415 20.87443 
10.48949 29.88484 12.46873 
0.6836229 9.485915 -24.0046 
56.383 -30.76843 7.100028 
5.941142 40.92892 8.849126 
-18.08307 28.98791 -13.49118 
-62.29161 1.97306 -10.2839 
-6.653738 -11.836 -24.1032 
19.625 46.27471 -10.15793 
-20.43139 11.16934 -14.34613 
38.29218 14.27507 -10.46251 
-28.12691 17.26817 9.619858 
-9.453861 -22.8676 13.15685 
-69.40482 -17.23658 4.148493 
7.363427 28.26952 14.3835 
13.28871 -9.787713 -27.87968 
14.36428 8.207706 30.31764 
19.54763 16.95858 24.77592 
-22.27774 21.66897 -13.09314 
-18.63807 1.300419 19.70705 
45.11407 -18.28484 -17.93951 
-40.81546 16.96977 6.394096 
-30.49322 -7.030842 20.081 
-16.47614 15.64997 -15.2237 
-13.89048 14.50605 14.91391 
-70.23503 -15.42091 3.815607 
-30.00557 25.67388 7.099157 
32.60904 10.49756 -18.677 
-53.05521 -15.7629 -15.45841 
-40.2129 -22.48843 -5.7592 
24.09606 -38.94365 -10.47181 
15.04147 45.16349 -11.81055 
38.86633 -2.008599 -18.05179 
35.51204 -34.52353 -7.133508 
-26.34326 -13.13876 21.48393 
-38.44228 -27.71184 2.572279 
37.71107 22.34132 -6.540102 
11.60869 -14.32715 18.57441 
10.75623 -20.61365 14.5392 
-0.02274901 23.18126 16.55942 
41.6526 22.6704 10.04047 
42.04689 22.35798 -0.3788487 
-67.43208 6.444581 -3.057847 
-6.283864 32.46784 -14.16925 
-27.54099 -4.341714 -17.57977 
-66.84875 -20.39093 -4.931275 
9.061074 2.056581 -29.10213 
-5.51072 -13.13076 -22.92827 
16.23784 -27.89054 -18.91995 
-28.95076 -4.767768 19.91384 
-73.10997 -8.378347 2.169439 
5.032071 -10.31988 -28.25585 
38.14139 9.408672 -9.102077 
33.43856 12.94254 -19.99444 
-53.4215 21.40659 -5.418343 
-2.103092 -26.70432 9.312875 
25.57373 25.90234 16.62537 
-32.41065 23.31483 -10.98426 
-6.06262 6.559033 -22.2676 
45.51949 5.380765 -0.03048578 
-0.9161937 -40.80603 4.152262 
44.18085 13.79442 10.71064 
-47.4623 21.13817 4.703198 
-25.47585 6.504551 -14.61703 
-67.9762 -18.58948 -3.879436 
30.30693 41.62728 1.209889 
-33.42998 21.44648 -10.68824 
44.52108 -12.62714 20.20272 
42.01909 -13.2237 -18.31569 
40.5397 -38.52136 2.219852 
-59.91219 -12.7052 -13.89451 
-32.62114 4.972269 -13.36097 
12.22366 27.4451 15.07178 
-56.44825 -4.096573 14.28024 
-27.19126 11.65746 11.97264 
-25.59488 -27.89435 3.629656 
-24.62308 27.16996 -11.42271 
10.91872 -9.487417 -29.00252 
-10.90892 27.30392 10.78767 
38.41962 3.792637 -13.75839 
-37.04913 -28.25677 9.787905 
48.81678 -1.616989 8.915853 
7.129599 12.07782 26.08074 
31.22665 31.53642 -7.161597 
-26.75521 26.52066 6.84658 
21.2377 -39.46714 3.236572 
-17.58846 -26.27227 -8.830256 
-70.57054 -13.08741 -0.1635736 
4.231282 -21.69295 -18.43479 
-3.426772 -21.83343 12.2158 
20.45995 -44.87561 -7.859109 
-45.51733 -16.06774 20.55719 
-30.78443 11.50102 10.78034 
-71.40489 -14.94481 10.61761 
25.90306 -37.18944 4.297175 
-24.96142 -22.43771 -9.280094 
51.32469 -10.72848 5.109983 
29.10161 -35.88702 -11.89788 
-3.37517 -0.5219952 27.85058 
15.06939 19.65134 -21.97107 
5.386113 -15.35229 16.34061 
-40.29353 -10.63478 22.11731 
5.187389 25.02163 16.2819 
-41.68781 -2.877693 -14.1191 
-65.21313 -21.89599 -5.974458 
-4.179582 41.56692 -10.95905 
-18.56727 34.61469 4.970388 
-1.449715 -35.30832 7.345613 
32.6442 26.09046 -9.993442 
-20.63858 -2.322057 23.07282 
-25.74357 37.10189 -9.224087 
8.373076 1.557796 29.07496 
52.26229 -25.08891 -13.1487 
8.936407 37.06914 9.805152 
42.61795 19.58986 9.19472 
14.2794 -18.55815 15.3465 
-38.08655 -28.69493 4.983617 
-19.04876 9.53941 15.5833 
15.95177 -9.988708 -26.30811 
-15.15336 43.19194 0.1064954 
-25.22341 -12.03061 22.305 
53.75736 -17.00864 6.090288 
-0.5912143 -32.47184 8.820555 
-6.670149 19.58067 16.35959 
20.34725 -9.027424 22.17254 
28.75795 -41.3138 -2.641295 
6.147518 -9.311462 -29.12618 
-37.57652 -19.84713 16.81728 
46.79468 7.708215 6.739804 
2.655545 26.41305 15.35365 
33.76785 -0.9801235 29.23898 
-53.89447 24.1512 -0.6143084 
-12.52125 31.27777 7.530221 
-26.86861 35.80244 -9.574984 
-25.14122 -24.40233 -4.035219 
40.92595 0.6116658 -11.82898 
41.44157 14.08732 -3.554505 
-43.6673 -4.943091 19.21312 
10.51892 -32.3253 -16.29144 
30.14895 -40.76469 0.2482495 
-31.77649 -23.16446 -3.169387 
21.42496 -14.57057 19.23265 
-51.52458 -21.0345 17.39022 
-49.54667 16.21916 -11.29617 
14.03263 -22.76728 -20.5673 
31.75106 25.92255 -11.59094 
12.47259 -46.65522 -7.737737 
-2.331937 14.20204 20.77937 
-11.1827 -2.285262 -22.50221 
46.4522 3.028493 16.03946 
41.15272 24.46583 9.9037 
-52.77481 -25.63958 -4.09602 
22.65054 35.71285 -14.11577 
34.61082 -16.26682 -22.97222 
46.56317 -8.456381 23.08308 
50.72949 -11.65057 15.94972 
23.37647 -20.63945 -23.23134 
-0.6126311 14.52374 21.64809 
17.78985 21.9339 -19.92632 
41.18112 23.97672 6.348216 
28.19522 -25.34319 13.23388 
-62.90371 -24.52512 4.777919 
36.1758 26.73581 16.38181 
5.756818 47.79321 1.857891 
-30.93334 -7.146392 -16.69141 
51.64926 -18.54478 -10.42157 
-16.74404 47.04887 -2.230137 
-67.12392 -14.83947 -9.404614 
27.48023 5.617219 30.31454 
-2.690941 -31.28516 -12.32614 
-19.6665 -4.537206 -19.41056 
28.62841 -38.13961 -9.575727 
47.51618 -20.00812 -16.62587 
46.51445 -15.8994 -13.28658 
-65.42809 -19.61574 14.74193 
23.29563 9.109194 28.90493 
-59.49545 -24.78637 13.61849 
11.40335 20.56283 -21.38064 
-9.649016 18.93634 -18.12017 
-61.44983 -0.9637802 8.838367 
46.01312 -25.38673 11.63868 
10.47834 46.05764 5.135285 
-15.04294 33.78519 6.210482 
-5.92857 4.956312 24.82254 
-72.56911 -3.563048 6.295828 
-72.25826 -0.4700277 -1.252194 
-18.87673 15.62418 12.62102 
21.46312 -21.92162 -22.17874 
-19.92829 42.74142 -7.718154 
40.14861 -2.939558 28.06649 
-45.9762 13.39718 6.522775 
6.058101 -20.28047 -19.9672 
22.92752 29.06979 13.0867 
32.31852 8.621655 -19.74984 
-13.296 16.6398 14.57931 
34.82112 -30.37845 -13.81686 
-44.75294 5.969324 -10.0948 
41.37109 -20.88434 15.24487 
-37.6321 36.33826 -1.034926 
-29.03159 35.82082 -9.292759 
-19.26031 -27.43856 -3.393651 
-46.43548 -23.32963 16.83841 
16.07683 -7.217481 -27.2911 
12.48119 9.714228 29.78769 
36.7649 11.14137 -11.58166 
-2.544854 35.72929 -14.00277 
49.33654 -10.95718 -5.70826 
-36.20812 11.64629 9.082878 
-46.99771 17.93102 -10.51706 
-9.475246 -3.640055 -24.10772 
-68.76498 -13.81316 -9.773205 
29.59049 13.02116 29.49809 
-44.37408 -30.20023 5.859977 
-63.98907 -17.46746 16.8085 
19.15438 53.61855 -3.120305 
-11.86012 -4.026288 24.46649 
24.69632 -37.41777 -11.85544 
-57.40353 -17.71336 -13.41366 
-25.02941 22.80209 -12.0414 
-59.63571 -27.42287 3.466506 
50.57533 -3.88981 1.925618 
-66.70531 5.95645 -1.52339 
9.18601 32.53688 11.71393 
-47.10756 -21.34191 18.14914 
8.330133 -47.43007 -4.270056 
-33.8203 39.43043 -5.505209 
-33.14309 8.863969 -11.48619 
34.92077 -5.214499 26.23299 
45.4403 10.89517 8.498174 
26.37971 28.90983 -16.0965 
57.05788 -30.41291 3.351098 
-9.145853 -24.89043 11.37972 
-8.808378 23.28445 14.2509 
-41.03511 7.713663 -10.14873 
45.2535 -23.41763 12.95871 
2.540627 -18.13536 13.68369 
36.51618 9.716226 -12.54325 
-39.39881 0.3317344 16.13944 
-36.85527 -14.85712 21.39163 
40.40163 26.2314 10.2527 
0.6206492 46.34406 1.497655 
30.18724 -34.10943 -12.66349 
55.43816 -24.65558 9.455683 
-33.03666 40.96243 -4.74275 
0.05608468 40.61426 6.736899 
-72.44492 -5.393364 -5.735533 
-61.65841 -12.39962 19.08148 
36.98704 18.94842 -10.67984 
35.01977 17.09155 27.41557 
8.258653 -20.77012 -20.57455 
13.2801 42.66574 7.074983 
55.30095 -20.76601 -9.454298 
27.64333 -37.00517 -11.42744 
52.44503 -14.51681 10.39514 
20.50278 40.45071 -13.85839 
3.897885 -4.425716 -31.2459 
-51.86307 18.07891 -10.84646 
36.2632 32.88682 7.022671 
36.74714 12.12045 28.87163 
-42.67912 -15.92268 -16.21812 
-43.67495 20.09617 -9.336774 
-26.64132 4.105652 -15.10888 
-61.28171 -16.39047 -11.59655 
-43.44351 29.86747 1.432821 
4.952616 -44.91973 -5.531538 
-48.45458 1.463954 -11.10291 
-6.442566 -17.77266 15.52242 
-7.915069 -38.8954 3.024711 
-22.22401 -13.22603 -21.59506 
37.37249 -36.04875 -2.669407 
41.47265 25.74422 -1.556548 
26.30387 -38.36791 -10.48034 
-14.25709 2.484566 -18.53187 
37.99106 13.66885 29.3586 
-2.514584 -35.3705 -9.56039 
-25.32279 30.78529 5.343832 
16.13975 15.2558 25.27119 
-57.09539 -27.26701 9.033309 
-2.579358 48.67367 -6.562506 
-46.73627 -30.19536 6.224983 
-8.161785 -19.76689 15.3439 
-52.44114 -5.498971 16.5867 
-60.45323 2.329788 -10.66359 
13.58488 20.78403 -21.19089 
-16.02573 22.23246 -14.96352 
40.78339 -12.99801 -20.20952 
36.5633 -7.960804 -24.30427 
-64.85017 -16.34224 -9.231569 
-52.24455 18.80648 -9.168764 
6.503159 -23.41217 13.82867 
8.048806 6.079655 30.5109 
13.1998 -27.36118 -19.06996 
-22.08725 5.623911 -15.96392 
-64.85526 3.334941 -9.4874 
-55.08982 -27.35876 11.49919 
-41.22352 -17.21372 19.87668 
39.65421 22.29055 -5.53117 
33.33945 -25.44231 -19.84252 
-18.72629 44.21149 -6.782943 
6.09113 -36.55988 6.26777 
-62.30859 -14.96241 -12.38088 
-7.663114 -37.64438 -3.774283 
12.47242 50.34951 -7.245167 
18.87554 51.25357 -8.107804 
-3.740107 6.207004 25.93481 
-21.00422 22.6893 10.20275 
37.81122 3.983446 32.57288 
33.81831 -35.41666 -7.317949 
-23.44681 34.10877 4.460603 
27.33079 -18.98815 -23.27423 
25.78251 43.91557 -6.823399 
-23.1763 7.405108 -15.00475 
41.57976 2.768545 28.24161 
18.41149 18.97993 -21.73246 
5.416186 -43.41278 -6.941374 
39.94044 1.842242 29.26559 
45.47415 -13.13159 -12.10081 
-73.16348 -11.65419 5.467192 
15.39728 3.027513 28.0896 
-11.17865 1.638435 -20.43228 
-14.64183 0.3407678 21.81639 
-53.5247 -22.91875 -7.420109 
29.903 -6.037228 25.44588 
-3.936906 -16.60662 15.14007 
22.28086 43.74446 3.924705 
18.7842 50.81156 0.6054413 
-6.83063 6.456989 23.36978 
11.83367 -17.29815 -23.72561 
0.6252025 31.71304 -17.31307 
27.1049 -27.10386 -18.79651 
40.55764 -9.572929 22.79087 
-24.96404 -22.44568 12.55907 
50.20391 -8.795856 8.401335 
0.1579326 47.91055 -0.03085819 
-52.86519 -11.41413 -15.54098 
31.50445 -36.97639 -7.673369 
-8.652824 -11.73776 -23.33059 
25.62996 11.95005 -22.04702 
-12.92865 19.90243 -16.45793 
-59.05394 -23.46728 -6.509896 
27.79764 41.94097 -3.423044 
-36.80517 -26.75267 2.169914 
-34.66914 -28.85433 8.924704 
-18.21746 20.77339 11.67181 
28.63738 -15.50001 -24.96006 
-12.03813 4.937776 20.50597 
-34.7847 31.6623 3.359995 
-53.54613 11.60454 4.25054 
-15.24064 37.4802 -10.65437 
-34.07607 -3.092026 -15.13165 
7.874653 42.28607 8.165931 
21.95505 -9.568975 -27.28021 
39.43579 27.03521 16.52449 
18.77627 -14.11661 -24.1701 
0.9759206 20.61734 -21.212 
-46.06453 3.890475 10.65801 
-41.45684 10.80397 -9.014111 
-9.589151 -3.078433 25.64195 
49.80596 -7.114027 13.96045 
-52.38758 20.05985 -7.754138 
14.35811 10.22961 29.72536 
-8.269375 -38.36929 -1.897724 
-9.797194 30.32905 9.204741 
22.81402 9.40665 -23.51064 
36.28143 19.64076 24.33318 
-24.45305 15.86009 -12.63596 
-14.06765 24.81614 11.12187 
-10.08102 -31.75821 5.923085 
21.91529 -32.19128 -16.11835 
-47.04575 -5.048469 18.54671 
48.612 -25.38404 11.68904 
19.44908 23.87703 -18.04633 
40.50172 26.49844 6.630607 
20.31667 26.65921 16.34604 
-45.44919 20.35861 -9.705701 
-33.05791 15.25516 -9.375469 
7.269625 42.26764 -12.43613 
-55.22645 -22.06179 -8.026203 
-43.34906 4.781618 -10.6918 
42.48736 -10.42788 22.13636 
-51.21797 -8.059441 -14.45873 
-32.50532 -23.63923 13.72827 
-36.72127 10.64664 -9.933337 
-43.7352 13.9314 6.145919 
0.5380319 -38.55987 5.546915 
40.24147 -20.62216 -19.50589 
4.167655 46.86254 2.191901 
-64.26751 -11.57927 -11.76707 
-29.99127 -13.06356 -16.96231 
1.6548 -44.66886 -0.3953213 
-11.94423 14.05241 -17.62957 
-26.60981 40.75816 -0.1856639 
19.84073 29.83123 12.40358 
-23.46134 30.60131 -11.16222 
-29.58856 40.89933 -1.132281 
-15.80921 -3.928737 25.1703 
-64.76235 -23.00086 9.2448 
-30.5222 13.63236 -11.40215 
21.65704 -27.47737 -18.53284 
-4.547425 21.06664 -19.94482 
29.71367 3.899126 30.53553 
-38.50256 9.983439 -9.811896 
39.57986 7.040104 -8.62519 
-10.92553 -30.5639 -3.742754 
-5.265608 -11.39421 -25.22934 
-5.929532 18.94385 -19.51263 
2.23879 11.04543 25.97386 
-30.69114 9.485281 12.40219 
4.730381 49.74726 -0.01806545 
38.43022 28.23272 13.05785 
-68.85505 -5.59529 -9.574595 
-56.29594 -28.73787 3.472866 
-34.45735 -20.44269 15.51687 
-21.38211 26.05902 -12.78741 
-28.69582 -16.9658 -17.2452 
10.55166 14.02332 25.08993 
-22.6952 -13.22791 21.36451 
-40.0236 -7.187368 -15.53078 
-45.00208 16.65339 -10.6892 
-39.87279 -5.427086 -15.20595 
0.2914572 14.17766 -22.37993 
-8.240044 -28.37808 8.136076 
30.01545 0.5472504 29.09046 
38.22087 8.936447 30.20807 
-45.60648 -22.6025 -8.401058 
-23.18017 14.56187 11.60258 
-36.8634 26.78575 -8.479465 
55.76258 -28.69283 -8.845507 
-4.568031 14.08924 -20.93779 
-58.2608 -18.66996 18.00018 
-46.5943 -0.6516714 -12.12073 
-68.51445 -6.593274 12.5735 
34.36003 4.922783 32.46869 
-15.34632 -8.026045 23.48343 
50.04768 -37.41671 -2.055626 
23.57169 -44.17361 -1.787787 
-11.10904 23.30315 13.10518 
38.34755 -33.22723 7.806386 
-59.60268 4.06093 -10.6977 
-7.608184 -32.59396 -7.396007 
-35.56818 2.026811 -13.90188 
23.44693 7.332662 27.09824 
56.96535 -31.43339 1.660264 
-29.0137 -17.97006 -15.84401 
-13.35875 -21.30728 -15.53438 
-12.73417 -18.68354 16.8203 
-46.33124 26.74907 1.811033 
7.851125 21.09602 -21.20267 
3.687402 13.24548 24.38165 
14.68392 50.11198 0.2791883 
-56.61789 10.04217 2.073342 
-31.01873 -4.027076 19.10397 
40.87865 -19.67893 16.39626 
46.69313 3.638561 0.6367167 
8.997657 -1.150974 27.20569 
1.11137 -4.765512 -30.57498 
-8.462431 -33.73679 -5.949174 
-44.82329 -26.66061 12.66083 
15.78484 48.22672 3.183751 
-66.67337 3.478918 -9.118612 
14.20147 6.244715 29.34527 
10.1047 10.29095 -26.39822 
15.47773 47.85938 -10.02566 
15.77281 -12.97439 19.79466 
41.60821 5.047056 -6.760277 
48.53172 -4.142968 15.2388 
-44.04839 22.50655 4.956594 
30.33403 -32.1552 -13.85693 
-43.40136 32.43672 -0.9020928 
43.67952 -18.70947 -19.35086 
-56.85535 -10.0076 -14.02326 
29.10536 -39.07898 -7.835251 
11.80106 23.61002 18.51402 
44.65977 -29.03118 9.198171 
-58.64599 -8.559053 17.4326 
-27.95242 0.9063027 -15.80833 
-62.69827 -3.853459 -10.67689 
-16.51938 23.42028 11.099 
31.6324 29.53697 12.24328 
34.7792 -6.754448 25.06139 
25.15482 -29.18896 -17.53671 
-36.34707 7.194132 -11.50345 
28.46738 -7.305687 25.17655 
23.76807 5.568705 27.35991 
55.0548 -30.66759 8.605492 
48.97421 -9.893312 20.73755 
16.03792 -9.265424 22.33941 
12.88708 26.10504 -17.27832 
33.61437 -4.664463 -26.07612 
-7.392998 38.76324 -10.3523 
-46.57375 0.9927832 -11.42708 
16.3639 22.59099 20.73145 
-18.70236 0.1082067 21.01163 
27.75223 -8.402829 -29.77106 
-58.39965 -20.98125 17.06638 
-55.36494 -14.19468 -15.25223 
37.28261 6.483737 -14.03265 
34.30854 14.33884 -18.84643 
21.63624 -6.041279 23.31217 
31.63973 32.24553 8.180562 
-13.27661 47.27367 -5.85952 
6.487927 -45.59235 -1.381263 
5.793618 -28.50003 11.16178 
-67.03063 1.474904 -9.385177 
-42.54478 30.11784 -4.748091 
-45.52699 8.788851 6.838921 
-0.02450329 -31.33167 -13.90226 
-5.810656 12.01488 -20.71893 
-12.71286 -9.448202 21.43621 
6.401508 -33.19991 8.27227 
51.16915 -11.3514 9.819797 
-10.25114 0.02385247 -21.82468 
25.70983 22.26847 -18.71736 
41.51708 -38.57481 0.7087029 
8.171423 -22.39004 -19.31908 
42.01133 17.06991 -6.126834 
21.62937 29.33843 -15.94981 
-44.18961 18.25413 -10.33817 
-28.76221 34.15894 -9.779431 
-25.88144 32.04842 -10.51945 
-72.26926 -1.114181 0.5961985 
-51.55192 -13.4663 22.01963 
-19.63555 -27.09437 9.180796 
-51.18435 21.10396 3.350142 
29.49721 41.49252 -0.4759665 
-67.80312 -20.07392 12.33019 
-14.22002 21.6564 13.09749 
15.68756 -10.77087 21.28939 
-3.784129 -39.00128 -5.281192 
-20.3293 -28.0019 0.2206589 
16.66935 20.70964 -21.04055 
29.07779 25.1804 -15.76527 
-40.55327 -29.54112 7.580913 
-36.96445 35.09956 0.1246466 
23.77266 -36.2053 -12.93281 
7.013426 9.230944 -26.11296 
-61.2318 10.533 -8.560379 
39.9831 -37.86998 4.257049 
0.4004129 48.62505 -6.87015 
9.445049 0.7703052 -30.33774 
40.4987 -4.18452 -14.88419 
5.030402 -26.1174 -17.46246 
19.84907 5.556096 26.78655 
36.76778 -7.46205 24.46716 
10.51301 51.53998 -6.759379 
39.15774 -4.966869 -19.78355 
-2.528722 21.00902 16.93888 
-12.36784 40.60695 1.226054 
-37.46625 -0.1629736 17.15143 
1.913162 -4.074854 25.63482 
44.81265 -12.9927 -13.82185 
-35.08458 -1.360325 -14.90619 
0.8721047 -36.31483 -9.346445 
-8.682326 36.41597 -11.25834 
50.70123 -12.18077 -5.629014 
14.83914 18.82227 22.94082 
-6.798059 7.76442 -21.18588 
-0.7358952 -36.74268 -8.747872 
36.30059 -16.82825 18.72773 
-30.49804 30.34168 4.901982 
15.29957 33.32133 8.591104 
37.18458 7.675954 31.33398 
37.21416 -24.94263 11.88744 
47.16821 -0.2071903 20.86671 
6.097766 6.949377 29.64801 
-5.914993 2.75329 26.29354 
4.758979 -28.97746 -16.29367 
-70.42572 -18.88667 8.910407 
35.12489 -11.33783 -27.85044 
-56.6054 12.03289 0.6557502 
-20.22468 20.38248 10.97187 
26.87271 42.76547 -5.516085 
-5.138342 46.01896 -8.494665 
-39.1497 -27.88136 10.76899 
-53.13978 -1.404373 -11.67852 
4.44942 39.00974 -14.25253 
17.35808 19.34778 23.05961 
-17.19097 16.37145 12.95153 
28.35836 -40.78318 -6.523504 
-22.64999 -20.978 -13.77897 
24.11762 47.1648 2.520275 
-42.20821 -9.324487 21.90123 
-45.84207 2.491971 11.95122 
33.94422 -13.1833 21.46329 
31.86024 -9.930107 23.31239 
25.29077 -14.35747 20.03398 
36.19468 31.75383 9.192631 
43.06339 1.232047 28.50789 
-27.10818 -7.353954 21.15151 
54.00133 -15.73539 -1.457944 
-58.54761 -25.06935 -4.964528 
-50.47453 19.07844 -10.46419 
-47.41612 -3.849866 17.32926 
36.72585 -17.87774 -21.20385 
-33.25865 33.46428 -8.065009 
4.964992 51.40113 -2.925514 
-58.70144 17.19576 -3.666862 
57.49239 -26.95636 -3.57765 
22.02735 52.50544 -1.702772 
-17.88673 -3.967157 -19.57847 
-47.32128 24.66183 2.627406 
49.54172 -6.548303 9.604957 
37.78992 -18.92865 17.07899 
-36.01734 14.4218 -8.564432 
17.31587 0.9072793 -28.32627 
-38.76049 34.44567 -0.02772826 
52.51861 -20.90343 13.49426 
28.87842 -22.08901 -21.95428 
23.21478 51.74673 -0.475213 
44.08473 10.00443 16.81034 
50.13821 -26.335 11.23645 
19.60929 48.12113 -9.493702 
-63.6722 -24.65998 10.94341 
-5.022803 36.71667 6.953736 
17.02022 -25.68694 12.89151 
39.85612 -13.14787 -22.0461 
-13.03723 -30.33715 6.819543 
-5.479488 39.68884 4.342125 
5.924213 47.14426 -8.773441 
-32.13674 26.00263 -10.65676 
-70.48105 -9.579372 -7.732862 
11.23015 -4.299793 -31.4767 
-6.15431 0.4027218 27.06001 
-71.90694 1.728078 -5.605425 
16.8265 -42.99657 0.6250463 
-24.54669 -25.94004 0.3527014 
29.37851 -40.46936 1.886071 
20.72235 22.47728 -19.14984 
4.317602 -11.09983 19.66 
-24.34751 36.94172 2.830892 
-69.43661 -2.146046 7.335933 
46.17023 -36.77701 -3.986823 
35.63919 25.41922 -5.677662 
8.574674 -30.93836 -16.94754 
10.0211 -47.58692 -5.438777 
39.91171 26.65259 -2.034085 
3.989085 -20.05619 -19.41883 
51.93852 -12.54383 6.225429 
9.197355 -15.1571 17.52978 
-33.20737 -18.32961 17.43832 
-14.88291 19.99501 -15.81071 
-31.98354 -25.66483 12.69326 
46.60473 -3.592381 -4.135908 
-72.66936 -1.909907 -5.765652 
13.0439 -1.28424 -31.31059 
-25.41693 -0.9164959 -17.37756 
-23.678 -23.18825 -8.353386 
-40.63927 34.42023 -0.7989657 
18.79402 -47.64278 -5.901742 
-13.79435 25.1288 -15.05806 
26.2683 -25.84102 13.12792 
37.99574 -38.43399 4.0238 
55.93861 -27.46413 8.461044 
8.049826 46.69695 -10.12803 
-51.42762 -17.98127 19.37071 
-55.55011 3.503752 6.620859 
48.26764 0.8663701 8.361583 
7.780648 40.83386 -13.41892 
-59.47883 -1.28203 9.884628 
-22.22489 32.38509 5.610476 
-48.35381 -12.53204 -16.40816 
-60.3607 -14.77492 19.21149 
18.26152 -20.52778 -22.15868 
-10.35828 -22.68165 -14.31981 
-0.4569946 -22.8304 10.80332 
-17.93217 14.27976 -14.81315 
48.33894 1.741034 1.920446 
17.58323 -2.912646 25.79667 
44.65093 8.802816 15.54095 
-2.632033 -23.86477 -13.81693 
2.847651 27.68726 14.01918 
-5.250948 27.2381 -17.08413 
48.09566 -19.47603 -15.06467 
31.72179 -12.37447 -26.94444 
-2.633082 -25.66121 -12.55735 
43.59708 16.92462 7.996663 
39.79639 17.42968 -8.430641 
-9.152955 14.12827 17.56957 
1.315533 34.38651 11.1401 
-72.23584 -2.827026 -2.846369 
17.18062 30.08308 -16.62778 
39.68171 19.63189 -7.271356 
18.5048 -35.38732 6.196016 
2.166362 32.84161 11.38017 
44.17777 14.33461 8.796737 
-12.32133 -22.78999 -14.4672 
-29.20968 -14.80425 20.42298 
36.91118 -32.5013 8.523354 
38.74725 -3.968826 26.94215 
48.01684 1.188829 10.38939 
11.74385 -15.74544 -24.77532 
5.78695 -11.97524 -26.80123 
17.22425 47.95436 4.219634 
-35.42506 31.74428 -7.498997 
3.691756 -36.40435 -10.64372 
12.14181 -22.24379 -20.54321 
-41.0038 -21.72924 -7.53105 
2.907833 -6.037746 -31.29676 
4.068718 -19.76293 13.02311 
19.99205 28.7123 13.77494 
-15.45263 -25.66469 11.07274 
-71.68277 2.375835 -1.559157 
-3.858303 31.52762 11.3304 
39.59764 -21.38961 14.76445 
-39.2729 36.19058 -1.918581 
-31.01591 -28.61757 7.991874 
-23.10573 -1.623853 -18.1526 
-22.77214 -5.407405 -19.67025 
-28.74778 30.24289 5.181389 
39.42458 -0.844583 -15.24907 
-7.334756 16.85592 16.99355 
-23.63164 -29.99709 6.274731 
9.157376 -33.34698 -15.17203 
55.24557 -20.61722 -0.7126526 
52.36185 -26.37109 11.25449 
3.006965 -33.4291 8.270357 
29.18425 -2.272921 -26.97958 
14.01463 47.52035 3.727741 
-63.74451 -2.715566 10.12249 
11.12354 -26.25632 12.35647 
54.78219 -19.53451 2.454743 
27.44072 25.53994 -16.3627 
44.98885 -8.84744 -10.92607 
-46.99456 19.38613 5.556878 
1.976978 -2.623299 -30.235 
22.28391 19.861 23.3329 
38.35641 7.197209 -10.57207 
15.52411 15.72674 -24.52448 
14.80774 -34.44831 7.274517 
-31.91327 -24.65814 0.5482627 
-11.82818 15.65588 15.58599 
-2.844549 48.20761 -1.567683 
-25.41384 25.41144 7.73296 
0.6641917 -7.788877 22.42748 
-41.29779 1.805041 14.48632 
21.47744 -36.94801 -12.22432 
9.317305 38.9426 9.174522 
8.394416 -37.17995 -11.76728 
26.74817 -23.31841 13.70714 
33.24133 29.765 -5.614963 
-12.64972 1.262805 22.36382 
-8.347382 32.76308 -13.25717 
-0.1967847 -34.03354 7.940866 
-72.02644 -7.493617 -4.487079 
47.42429 -4.409602 23.23371 
12.80163 -0.509145 27.5445 
7.70399 -2.336869 26.56096 
-68.68537 -17.01381 -4.645088 
45.24088 1.424307 24.69802 
-2.180578 -14.0718 -23.29086 
20.05314 19.98109 23.14919 
45.07741 2.598872 22.53218 
27.242 -14.45756 -25.67875 
33.56715 24.41164 -10.05878 
42.15862 -24.33139 12.14648 
32.0648 -39.51015 3.176748 
45.21983 -37.9248 2.928142 
-16.39574 34.51328 -11.61837 
36.05648 -1.811777 -20.64097 
11.4579 38.23548 -16.6788 
-0.5988047 -17.85449 13.98401 
-46.65206 13.0194 -10.86108 
-18.35089 -14.24736 21.08715 
-61.25352 4.546318 -10.22953 
39.78791 10.61435 -4.560566 
1.86569 42.87858 4.952685 
56.92661 -29.8975 -5.739831 
-24.19666 -29.08341 3.947879 
-0.9541278 30.95285 -17.40206 
-28.76493 -20.76991 14.56657 
-3.135578 19.92879 -20.67264 
37.44743 -28.08791 -16.10115 
12.44405 31.73604 9.974766 
-18.01158 -5.159231 25.59457 
42.45969 -17.19981 17.68582 
49.36922 -31.38686 8.957079 
41.21288 -11.78111 -19.03339 
-22.70892 2.294516 -17.012 
21.66353 -6.014555 -28.61891 
38.53817 -31.24072 -10.52812 
-18.34489 45.91766 -1.660954 
-7.519457 -6.318609 -26.56925 
-38.14231 -6.416912 20.115 
-65.5504 -22.09356 5.124794 
14.64862 39.80706 -15.61736 
-27.88984 20.38023 -11.92299 
-28.78426 -28.4561 6.21914 
12.5246 -23.82799 -19.53787 
3.751684 15.97216 22.13175 
53.50312 -17.5025 13.50303 
-12.41154 17.74719 -17.07361 
-8.167163 3.614899 -21.64056 
2.498535 -26.83115 12.02368 
15.13122 49.02546 1.602625 
6.404961 16.12026 -22.87897 
-2.287266 31.1929 12.45466 
5.904726 -18.36056 -22.18639 
41.75446 22.45032 11.86168 
21.4242 -24.24171 -20.30781 
24.07774 33.87025 -15.06662 
7.747498 44.79723 -11.04523 
29.79933 -25.83195 12.69938 
-36.71879 16.09856 -8.713862 
-72.19386 -8.745702 -1.360523 
-71.87289 1.980819 -3.675231 
32.69961 -6.217556 -27.79039 
34.57898 11.11944 29.65708 
34.2349 32.38127 -2.399813 
14.82036 -4.393633 -30.32499 
-34.99962 -24.3192 13.98256 
-31.65223 31.55324 4.12724 
13.50416 50.22659 -8.64699 
48.60618 3.451718 4.537879 
-29.57246 23.68669 7.67669 
51.51566 -36.50526 -3.207881 
10.97854 26.48319 -18.29687 
-65.95975 -22.04412 1.034864 
52.0444 -13.79867 12.32458 
38.16511 -16.69719 -21.43796 
-53.39958 -19.19686 18.19375 
49.42506 -16.73852 17.08911 
-14.78388 5.46525 18.57222 
-37.37672 35.62706 -5.153616 
32.28834 -30.68656 -14.33762 
-28.09191 3.599576 16.64188 
50.01604 -11.18303 18.44174 
15.50776 -27.43563 12.15015 
30.53141 -30.42294 -15.20104 
56.88148 -25.75499 3.554401 
-38.30795 6.373313 12.43394 
18.7975 4.072023 27.02679 
-8.088787 -31.15065 6.504066 
-19.52202 -12.4396 22.24411 
-16.71825 -12.62942 21.75861 
-9.152239 -1.753762 -23.42633 
39.23331 5.408383 -10.6523 
22.25559 46.8298 3.108615 
-72.53515 -3.042655 0.806579 
-39.66121 -14.68002 -16.37376 
-69.59846 0.6427073 -8.832711 
-72.7652 -4.625682 1.917003 
48.12663 -3.717175 17.09316 
35.05784 -20.15468 15.96341 
-15.5844 -26.18699 -9.951923 
-15.57451 -19.4569 -16.73778 
23.52164 -33.3538 -15.38394 
-44.33221 3.631645 11.47185 
22.87363 -12.71424 -25.66852 
38.3157 17.78783 -9.908682 
56.09776 -34.81429 -1.249263 
-70.28291 -10.40433 12.75865 
-51.68518 -29.37902 3.530973 
45.27048 -7.402156 23.85268 
-67.31793 -20.54874 4.535235 
-46.68598 2.998769 -10.77285 
38.2206 19.8249 24.79073 
22.61537 -14.66984 -25.0111 
-49.72842 23.24872 -7.201292 
2.408368 -45.11413 -3.754012 
44.83601 -37.72336 0.9782828 
31.01582 15.67298 -20.71588 
2.810655 -45.19333 -1.879646 
-69.14163 -10.51504 14.1558 
19.07468 -25.77522 -19.43464 
-6.800786 10.26334 -20.57656 
-23.94269 5.271902 -15.52412 
31.99945 23.79706 -13.2149 
-55.22634 -1.777291 12.44359 
15.42542 -36.09452 6.226978 
-36.05863 -2.560272 18.1798 
-23.06174 29.48717 6.977292 
-47.21339 -18.10111 -13.68836 
43.90864 8.909455 22.78034 
-18.03488 38.53303 3.578407 
-61.75769 -9.353203 -12.20083 
29.22771 24.75946 17.7345 
43.41987 -36.17017 5.489148 
-44.58091 -14.37376 21.83699 
53.90952 -19.12613 12.83423 
9.349863 40.72631 8.536113 
-39.031 8.343922 -10.28371 
23.46187 38.18805 5.070348 
0.6472288 10.80125 25.32481 
39.8626 22.22687 22.70441 
18.71195 16.97341 -22.10804 
52.5537 -34.90372 0.4473329 
6.417862 -28.1773 -17.04248 
-48.17847 -6.909563 -14.68398 
41.20812 -31.14838 8.499544 
32.61465 12.21115 29.27765 
-34.43066 -14.69778 -16.68289 
-9.258429 16.71996 -18.8176 
-17.04206 36.48739 -11.06975 
-44.69628 -6.795262 20.87799 
-34.71705 -22.67374 14.55173 
13.72046 15.34488 -24.98806 
-16.63549 -15.41414 19.93781 
-37.78873 -29.23385 6.615021 
49.00458 -18.84659 -13.38046 
-49.37152 12.13481 5.990061 
53.83315 -33.92918 1.389714 
18.25801 10.28522 -25.42395 
22.23119 -33.61068 7.258012 
-27.97525 22.30094 -11.66351 
23.5892 17.38384 -21.10271 
0.8428341 27.71351 14.45433 
-18.74508 -1.958802 24.76705 
-32.79591 16.34462 8.287663 
6.902377 26.08879 -19.29589 
1.52364 12.35972 24.60282 
11.45687 -10.99334 -28.06475 
9.902996 52.06286 -4.199636 
-11.54555 -9.364836 -24.9048 
19.25006 47.81253 4.21096 
-37.14653 -19.28421 -12.25445 
-27.78589 6.389024 15.51953 
-39.68087 -24.15123 14.39478 
-54.73323 18.89626 0.3326861 
-49.39057 -8.235897 -14.92753 
25.50389 16.47067 26.06017 
-2.821993 -9.715861 20.05374 
32.60423 24.53409 18.32046 
-15.68061 -30.85613 5.624097 
24.5462 50.17939 -0.4900938 
-34.28832 -21.34741 -7.284546 
6.173393 -16.7687 15.43431 
-31.22303 -14.74464 20.74062 
46.51942 -11.61391 -8.999779 
-16.76771 -6.343223 24.99966 
-37.53779 -24.29685 14.15392 
-52.53638 25.49184 -1.60716 
52.53581 -23.04206 -13.4987 
-9.141161 23.41942 -16.83831 
13.15639 47.03349 -10.70686 
-5.395909 -15.94992 15.86539 
14.32316 31.65237 -16.94601 
-37.78444 33.37998 1.090063 
-8.578759 33.16149 7.889955 
-47.84621 21.17879 -9.243454 
-54.79908 -15.91126 -15.36753 
0.8133378 -16.51707 -21.46654 
-9.033753 -14.95707 17.88994 
-71.02191 -16.72127 11.1424 
-0.7387404 4.27697 28.87607 
-3.196152 -36.67668 6.78537 
45.22766 6.197206 16.54772 
30.02776 -28.94286 -16.72607 
-32.92636 -26.60577 2.19945 
-71.35969 -8.588099 -6.301256 
8.436279 -9.067288 -29.43544 
-33.71059 -27.0551 11.52762 
0.56294 11.40683 -23.2334 
-65.21185 5.594426 -0.6094259 
-15.11282 45.9504 -6.305084 
26.52162 20.99528 22.30976 
40.13254 12.25675 -2.487473 
-55.49268 -29.14665 0.5793879 
-13.57136 -13.1239 20.60657 
15.11193 30.61688 11.58614 
16.38781 -29.76094 -17.55901 
-28.43809 -8.456343 20.94835 
39.81516 -18.0048 17.70586 
-0.4340116 4.237787 -26.53859 
-15.35248 -29.3596 7.492919 
-22.88369 -29.32031 7.907233 
-9.13311 43.01807 -8.694146 
5.907286 -5.340501 -31.55635 
-48.24347 -4.875256 -13.73259 
-15.47174 9.118611 16.40778 
23.77559 51.45172 -2.522044 
-3.359724 -19.72926 -17.04672 
-42.89587 -28.39383 0.7437205 
-4.816648 -41.74053 3.404933 
41.51144 8.683332 -3.35398 
-16.68829 -0.1992815 -18.58442 
9.823154 -28.24179 -18.07504 
33.94288 26.76344 15.75301 
-36.09764 20.59048 7.166242 
54.64772 -20.43391 10.93088 
8.336486 27.18142 15.46543 
40.96789 23.61594 8.199586 
45.6665 2.893664 -1.402255 
-29.4296 7.661318 14.18188 
-70.43697 -11.27505 -6.609548 
-27.19141 -21.22821 13.96508 
-43.14079 -24.27798 15.32597 
30.74206 -1.226342 -26.31356 
-17.20271 -1.331332 23.72449 
27.51711 17.52248 -20.19071 
-29.42739 21.31541 -11.55708 
-49.62244 -14.23825 -16.10143 
-8.830072 6.361783 21.7015 
-18.40935 -29.5876 0.4960129 
-42.99739 14.32351 -9.315924 
-2.506397 -7.027565 -30.19884 
-27.84239 8.532219 -12.99503 
33.25275 -32.72556 -11.4941 
-48.74815 2.067899 11.20562 
-56.82398 -21.51674 -8.62734 
37.31694 7.996338 -12.43437 
48.26723 3.239886 7.15218 
-8.14243 9.025401 -20.16734 
-51.45267 -10.09224 -15.32774 
10.28197 42.78999 7.68464 
-51.90887 9.306389 6.444757 
-57.35777 18.14501 -5.998602 
-44.30794 30.31442 -3.253349 
-61.21589 -25.39075 9.332848 
39.29842 -30.04816 -12.03987 
18.62425 -4.589954 -29.01166 
-23.14929 -22.06894 12.92525 
34.76501 25.07986 -7.36886 
16.61021 1.785299 27.45121 
50.67392 -28.43153 -10.61345 
34.89883 26.99728 -5.430716 
-59.46539 -16.66845 18.47976 
1.762248 -11.50162 18.86499 
21.50275 -29.90475 10.15022 
-69.88875 -18.88318 11.04871 
4.839432 -34.01287 7.69924 
26.72524 -35.99692 -12.62635 
-55.6217 -2.200441 -11.74807 
19.97472 -4.608054 24.42172 
-38.75242 -11.56175 22.06163 
-69.47192 4.265915 -8.117794 
21.07091 21.38623 22.28679 
-33.4045 -8.670367 -15.84315 
-47.56439 11.15616 -10.57221 
1.161405 30.13597 -18.32144 
28.313 -24.58084 -20.51242 
12.49004 13.88621 25.56839 
5.157913 -1.405339 27.40886 
-8.562558 -13.51455 -21.22387 
-9.53231 2.44974 -21.21376 
-49.6445 27.20349 -0.589414 
18.08785 22.85876 21.11094 
28.35019 -29.84191 -16.29537 
-28.3017 10.09115 12.635 
29.34176 -5.58682 -28.79662 
11.61272 25.04362 17.27672 
7.109534 10.90382 27.90938 
18.65087 39.55358 -15.12064 
-31.33302 39.95167 -0.4394159 
-2.06778 -39.5793 -5.521015 
36.24912 12.0046 -13.60292 
-0.7708499 -41.74463 -4.251997 
56.56712 -27.35958 6.514663 
-21.38904 35.63604 -10.51136 
29.37419 41.1666 3.26715 
5.359429 45.28186 -9.808008 
-48.71277 8.781489 6.332529 
36.59901 -36.97601 -1.394783 
-16.3399 41.22445 -8.893584 
-40.89938 -17.36089 -15.59563 
-46.82399 0.8070588 13.10801 
-30.94353 41.9684 -4.589676 
2.521016 -17.83047 -20.82059 
-37.13724 38.10504 -2.725403 
0.8505787 9.188432 26.52673 
6.669433 5.197989 -27.75632 
56.01708 -27.12816 -10.11623 
-3.094186 46.01992 -8.442699 
-57.94538 -28.15873 3.490534 
41.81568 21.85394 5.380955 
-27.00429 -23.18361 -5.908442 
36.06236 21.82679 21.81627 
-54.06604 -20.58654 17.17191 
-19.12311 41.34194 1.143991 
21.70666 -11.44016 21.05278 
-12.68151 2.215365 -19.2388 
29.13431 28.66504 13.40848 
43.11466 -30.82588 -9.486015 
-33.14824 6.55178 13.83581 
25.93749 17.01798 -20.71151 
28.18247 42.72382 3.177478 
11.29374 29.44267 -18.10225 
-39.36842 -20.4253 -9.503963 
-2.643143 3.57425 27.99465 
-50.28716 15.50853 5.659923 
-21.06392 39.3854 -9.12597 
23.75451 15.50819 26.47651 
-60.64214 13.6064 -7.167052 
28.55515 -26.05316 -19.18818 
-41.587 27.75838 3.735061 
17.1727 43.26397 6.07961 
16.18649 22.62948 -19.49738 
1.280343 37.6977 9.432747 
-3.181146 1.084464 28.55383 
41.25269 -1.253275 -12.1157 
40.76744 -7.707458 -17.37389 
1.204484 41.72561 -11.48994 
46.59915 3.723562 13.81537 
-26.76354 1.211091 18.55566 
47.25345 -37.61954 -2.64499 
-10.25659 -29.96313 -5.352313 
-38.19924 -3.7555 18.71069 
42.69728 -32.04999 -8.027857 
-48.11722 -27.70628 11.43867 
-9.313539 -32.08703 -4.747956 
10.7297 -28.71997 10.73592 
-26.64257 26.28704 -11.55624 
-15.69151 17.67538 13.24369 
1.879823 18.92363 19.18004 
-66.63662 -16.11037 -8.038589 
-14.03125 -3.775788 24.67361 
-25.09901 -17.28891 -17.83815 
42.2841 21.99521 1.803645 
-32.54837 -28.39001 6.193847 
25.80557 -11.11159 22.56916 
47.37912 1.637298 14.06636 
-13.104 -26.99019 -9.172033 
33.54162 -10.00753 -28.47531 
-2.71632 -5.048819 -29.39125 
-20.33351 6.097733 17.2371 
32.44109 18.72136 -17.02899 
20.19079 14.1742 26.90644 
-22.5429 27.95311 7.754759 
-53.86555 16.17851 2.656463 
33.55738 -7.889329 -28.23276 
48.03438 -36.81268 -4.36061 
-5.300903 37.82488 -12.02194 
32.76642 -17.77462 17.9139 
-39.87415 27.29738 -7.413954 
-23.14069 35.65189 3.652482 
45.32924 -2.495368 27.02409 
42.10582 22.88266 3.989929 
53.02788 -15.25676 6.329104 
-21.09447 -3.681108 -18.52353 
-45.44446 -11.28926 22.34737 
29.63344 35.458 -6.812611 
-8.631131 -18.91126 -16.55855 
5.125882 -41.62629 -7.726295 
-15.21613 -30.42518 -1.370843 
33.10513 14.96974 -20.21234 
7.385499 1.213498 -29.62793 
-7.592677 -38.03895 4.767018 
49.62207 -36.78324 -3.620131 
35.96462 30.26582 11.06174 
13.84385 -31.25732 9.199314 
17.22805 28.27538 -17.03242 
28.93942 27.6764 -14.26438 
-50.83835 11.1273 5.781306 
-45.86644 -10.74165 -16.58448 
-37.43929 -20.88878 -8.260683 
50.66885 -9.098172 5.058556 
22.75709 37.88222 -12.81924 
-55.17408 -11.76677 21.08931 
-29.14991 -6.727714 -17.3542 
44.43626 5.701684 -1.475608 
-3.988981 8.737893 23.75801 
-25.10864 1.759956 18.9417 
23.26153 41.62853 -12.49385 
21.47226 4.432704 26.309 
-49.12154 -9.951086 21.33441 
-53.91409 -29.16274 7.759472 
37.53455 -15.48292 19.70351 
8.790506 -4.515233 25.13381 
-68.81654 -0.9402384 6.19654 
-28.0983 -25.18624 1.009159 
47.78125 1.315808 12.33561 
27.26094 23.51616 -16.81501 
-1.390586 -32.43817 -12.41036 
-66.21272 7.050121 -8.620274 
13.64662 43.94043 -12.55745 
-7.005426 -20.21886 -15.70634 
-3.598392 -40.6655 -3.664577 
3.66442 -8.249578 -29.91299 
28.48289 32.56036 -11.3759 
-2.648657 46.74303 -0.448063 
-11.23022 49.22169 -2.818166 
-3.807878 39.99366 5.172637 
13.73424 -37.46828 5.342133 
-4.781507 -37.26945 -6.319559 
20.47279 36.37947 7.35214 
-37.91637 37.0449 -3.864192 
27.37954 -14.53742 19.99847 
31.68886 -24.22111 12.94482 
-27.5978 24.02438 -11.51623 
