ply
format ascii 1.0
comment VCGLIB generated
element vertex 1638
property float x
property float y
property float z
element face 0
property list uchar int vertex_indices
end_header
-94.47809 24.27631 -6.461592 
-24.29732 -9.075761 34.4248 
23.84292 -37.15626 -19.12435 
-45.99377 34.49026 -23.18392 
71.74694 -4.512617 -31.40765 
10.40655 39.87547 -3.395283 
55.73447 1.180755 -28.91368 
-70.20313 36.18716 -2.422296 
83.86063 -12.60775 -12.93509 
-4.670566 -43.00965 9.62121 
-44.74619 -33.81622 19.23102 
-9.012012 -29.45963 32.69907 
74.58662 19.20435 20.56582 
-69.69321 -27.54861 -12.0879 
83.94825 -2.346261 4.372344 
-88.40693 -3.824822 2.1314 
-52.40998 30.6986 -25.26412 
32.16896 9.036216 -24.87077 
-7.162113 17.42274 -24.80632 
-41.59898 14.08721 23.45855 
35.02188 18.49547 -19.39352 
-35.24934 -39.24662 8.365477 
37.90013 -30.50426 -28.10354 
32.46848 -5.752684 40.26606 
-20.66327 17.27381 25.79349 
-16.05638 -42.67174 19.24249 
83.02969 -14.25121 -27.09229 
17.85685 -35.23533 0.1711344 
44.44723 -15.5063 25.01805 
-56.18877 -4.00624 -21.81084 
44.53365 29.13051 20.73119 
32.6064 -17.95337 28.75217 
17.23334 -24.79757 -33.86589 
61.73173 -12.26576 20.15823 
-54.18174 5.553245 -25.49343 
82.90863 6.913799 -7.710348 
-50.09221 31.80718 -24.68884 
17.27747 -30.39069 -28.54597 
-14.00175 17.88616 -25.35091 
9.036928 -35.06086 8.566114 
-47.78722 -13.79964 -21.29559 
7.369989 -9.884765 34.66515 
56.7121 23.99588 -16.50267 
65.21635 -18.20409 -33.39764 
-75.72633 42.3169 -12.54171 
-59.72854 -8.436525 20.82607 
-0.8174963 -0.1607143 36.98604 
76.45984 -6.584311 20.66006 
-2.137401 -30.6361 29.02091 
31.07209 -34.74201 -24.15284 
-25.4381 -30.58283 26.07719 
-3.655509 36.04409 -6.101709 
-34.13243 29.53599 -7.568337 
1.487527 34.75141 6.130393 
80.86372 -6.316458 -31.37691 
-36.78564 -18.55307 -22.14371 
-1.089907 2.48083 -30.11221 
-16.9065 -44.46791 14.50694 
-93.39906 21.75945 -14.94472 
43.42505 13.61666 28.33418 
-15.40977 -31.04437 30.50607 
-24.2662 -32.74763 -19.4649 
8.947392 -27.54092 -31.46959 
-63.53512 36.2849 -4.036054 
35.16608 28.03453 -14.59715 
-27.40788 17.51982 -26.80014 
-85.93349 9.807561 -22.87286 
72.37392 31.02906 -15.92686 
28.90313 33.96927 -13.06794 
-80.7831 40.84633 -22.37985 
-59.49998 35.72869 -5.33087 
-28.64523 27.20374 0.2584282 
48.95076 25.33526 18.53962 
-11.33747 15.91899 -26.16069 
-54.7561 -15.72888 -19.31327 
53.26711 14.20931 27.77402 
67.34356 -13.70402 12.07055 
84.79489 9.367036 -10.78366 
-83.53986 38.14513 -12.40779 
-12.45982 -42.31646 -0.2547924 
18.8957 14.42498 32.88736 
-52.66407 12.98332 23.79788 
-17.75869 10.31218 35.95632 
38.01695 7.50788 38.56046 
-51.39599 39.86623 -16.19744 
-87.22661 -1.273117 14.32657 
46.28231 -32.18001 -24.71561 
-58.22154 11.6819 26.53563 
-43.88307 16.1191 -27.90743 
49.19434 -18.05913 -38.58766 
-87.82861 37.39412 -12.45967 
69.08304 29.63589 7.070258 
-80.17912 -19.01033 -7.255446 
-26.85705 7.326686 32.92097 
87.57693 26.49187 -0.6742506 
-22.67825 -42.28804 6.292709 
-38.76809 -35.05725 20.87304 
31.66917 -30.27936 -29.69665 
52.07974 -31.97586 -12.74314 
-6.046433 -26.42181 -24.52078 
84.62354 -4.425122 11.76302 
-22.54993 -9.426222 -26.03391 
-90.26701 22.4558 10.83295 
-92.842 27.7681 -20.59947 
-33.99388 -24.33489 24.52164 
-84.4193 -6.263849 -9.941035 
-0.5861942 -44.4792 -7.607265 
-3.039311 19.37041 29.13232 
-17.3478 -41.44088 -1.667717 
59.4317 18.70065 -19.70601 
7.28019 -25.34416 31.29354 
-0.9103023 -36.44149 18.98355 
40.28516 40.11224 10.92348 
63.37294 -30.51612 -25.23485 
-24.58937 6.663318 -28.53717 
69.1575 -16.14737 6.100008 
-25.29997 -41.73366 24.50424 
-36.10746 -39.22773 11.59818 
42.83379 -11.79437 33.42805 
-90.6467 11.77155 -11.64921 
-45.39509 -0.6876131 -25.42275 
63.32146 35.60454 -12.90966 
33.91245 -37.71997 -17.21187 
42.84704 -11.10062 -34.65424 
-28.38507 -27.39741 -21.45408 
-27.7532 32.66351 -19.90562 
-81.95389 -6.386316 14.02412 
-59.21564 -26.76155 -14.82827 
-2.493127 -44.78574 4.481291 
-87.81453 35.14589 -24.16554 
-8.430125 -4.65709 -30.38073 
35.46236 -4.03856 41.07714 
-56.79942 -14.66571 18.96586 
-9.89817 -30.66599 -17.91347 
45.2703 9.098705 36.65881 
92.76413 24.78994 -14.69209 
6.216834 -36.06798 -20.91364 
75.50391 -21.60111 -13.46672 
20.06616 12.41557 -24.48342 
64.97099 -20.89795 -31.50514 
-66.71033 15.42116 23.07603 
-21.35037 31.30269 -11.49157 
-59.83952 -26.27942 13.96844 
-24.97128 -41.38636 6.081024 
38.41563 -16.31786 28.11252 
53.82141 19.62411 21.50421 
65.0163 35.77168 1.754524 
-30.83723 -38.4019 -5.885678 
-94.92403 29.83595 -8.72158 
12.94943 4.293265 36.5656 
15.76109 30.37328 18.06448 
-94.20715 24.88864 -10.46769 
-28.25276 -3.735973 -27.54986 
93.35776 24.12598 -11.45068 
91.54228 19.24933 -11.88425 
81.28214 0.551186 -20.92219 
30.15991 -11.27325 37.37181 
8.639858 12.74031 -25.23639 
33.41257 -26.58767 7.264838 
-54.20235 2.293353 29.30532 
42.64832 -10.4221 35.47202 
86.93581 13.01885 -12.67086 
-69.49359 -30.68874 -10.65799 
-94.29726 27.99273 -14.31358 
-61.22425 10.26879 -25.34819 
-32.89861 -39.84563 10.43812 
-88.83568 29.35587 -24.83185 
-51.72995 -37.02053 11.40833 
42.31271 -13.10827 31.53072 
-6.349609 23.50662 23.49771 
-81.31691 39.13443 -12.51767 
-57.59011 36.11395 -6.52237 
17.84434 -8.890053 36.43444 
37.0715 40.72373 4.541645 
82.0449 -7.125929 -29.52194 
-57.91291 -20.17775 16.73706 
-23.53719 -17.59532 -24.24306 
15.81951 27.40222 21.71859 
53.98363 23.04914 16.18035 
66.57394 11.75035 31.96765 
-71.27239 4.871073 23.61742 
-65.01575 -2.036608 -21.60945 
-14.84191 -22.29878 -22.61598 
20.55981 -24.94659 20.52026 
-1.979592 -45.35844 1.268251 
-4.735802 -30.24426 -22.68761 
77.22309 6.307453 -27.50439 
-86.65327 40.33558 -17.62469 
33.08624 -10.64257 37.24912 
52.21116 -30.58429 -27.98784 
34.95341 2.436955 -29.27422 
75.3599 18.16349 18.88481 
-23.33154 28.74966 -3.325203 
45.62648 -24.93211 6.618756 
-79.98942 25.55509 6.908227 
-4.497725 -27.61908 -25.30413 
-48.89498 7.445784 32.95953 
-83.04062 25.06514 -26.3362 
-8.567168 -35.24974 23.94744 
-58.90499 -2.597253 24.08284 
84.13103 11.95563 -19.00603 
-84.29531 15.90294 -26.13241 
-26.78364 -37.07475 -16.23351 
-25.6419 21.16652 18.23398 
-29.24534 -40.03943 1.747607 
83.58429 -4.553384 -21.92434 
36.63877 9.378357 34.39522 
31.73148 23.9393 -16.75533 
41.48347 11.59012 31.29625 
79.17382 2.978373 27.51598 
81.75133 14.50458 18.63486 
-86.11354 36.89277 -23.82993 
-51.65603 -7.074927 -22.20181 
41.82447 12.15487 -24.14264 
43.03233 40.30112 3.832016 
-58.72977 12.61922 -26.69806 
25.53306 -36.28123 -21.29993 
58.6588 35.70634 -11.93148 
73.83122 9.600973 28.14272 
90.67209 13.6473 -0.765352 
55.23992 13.47877 28.90557 
-75.84982 43.13998 -19.6148 
81.73363 -9.430902 -28.80899 
-8.547352 -11.59405 35.55508 
67.81403 1.462856 32.60566 
46.31288 -23.94922 8.275818 
-73.56673 -24.81534 -12.16171 
-75.94374 30.92505 1.857587 
-51.40181 35.58627 -7.737377 
-17.74162 -37.77649 -10.02819 
64.80327 -9.496452 -33.74089 
-14.6772 21.61253 22.39268 
1.983635 -11.22224 -33.13568 
-89.20972 11.90525 20.0912 
13.13874 11.86197 35.27462 
64.37146 -16.07353 9.452239 
77.85283 -9.161956 -33.62586 
-97.47021 18.52409 9.665339 
39.77765 -8.671394 37.44279 
-59.45281 -1.128075 -21.95056 
25.57861 -27.83285 8.50901 
90.03162 19.07886 -16.30407 
6.605611 13.71684 -24.94545 
-81.70512 21.11598 11.83238 
0.6190245 35.33544 4.275907 
-5.196478 9.479887 37.83512 
49.46259 -17.09161 19.04563 
37.8895 13.03162 28.77575 
-14.67099 14.44302 -27.29261 
-65.51644 -33.85171 -8.535189 
-97.18237 20.32988 -0.3460453 
-18.45374 -30.49697 -18.54678 
-75.54149 29.4107 4.020527 
25.39172 -11.15294 37.83634 
13.60624 -17.70176 32.96741 
-13.56905 32.74594 3.837811 
-36.492 14.25218 -28.26848 
53.92436 40.97248 -2.480133 
91.7086 18.58215 -9.931118 
-49.6601 -18.49918 -19.48429 
1.773086 -44.71027 -4.817945 
26.09855 -22.36301 22.71738 
26.84271 -33.42088 -2.857267 
13.94434 -37.05985 1.559856 
-20.53337 -42.85494 22.04539 
61.52499 36.41997 -11.77634 
-41.76762 -31.20011 21.36458 
-50.05343 -22.00838 -18.52635 
-37.8749 -19.76427 24.41114 
18.666 -23.07577 -35.13535 
50.21354 -25.92258 0.7042269 
84.66924 10.19075 -12.7292 
-89.07166 3.947745 -6.274632 
-46.50027 -36.04966 -8.069236 
-4.95879 -38.33762 18.15217 
-13.28866 -18.28384 -25.61381 
-94.10503 14.96319 16.91353 
-26.08588 -31.62046 -20.54836 
53.97631 -19.51325 9.946882 
23.44262 -20.33641 -35.58373 
42.20985 38.79407 14.90895 
14.87647 31.6459 16.71436 
-54.07101 20.40122 18.78526 
-85.44501 29.20127 -25.83168 
79.16466 33.40457 -1.06309 
48.37533 -12.12162 28.60468 
53.96358 -25.44731 -33.58039 
61.45441 -26.79102 -29.30492 
15.62994 37.10361 -9.14924 
32.85201 -35.84258 -9.951706 
66.87611 -24.17838 -28.33026 
63.3107 -10.31994 23.70349 
68.32529 16.90935 -21.69812 
54.50215 -8.635391 -34.15206 
85.51814 30.51299 -16.39215 
-29.58836 -1.608523 34.77765 
-39.09709 -37.44417 -4.24148 
-82.07993 -18.20466 3.441413 
73.7822 24.288 -18.74427 
-63.59681 43.89158 -14.70681 
85.22433 0.6770935 18.5959 
-25.78992 -28.0225 26.64637 
35.14267 1.654823 42.17912 
15.57966 -18.42582 33.28624 
72.53165 0.1019525 -29.16478 
-19.00893 -29.15982 -20.37769 
1.581271 -0.06587055 37.2206 
17.58416 -26.63667 -32.79941 
54.39202 -28.28242 -9.909962 
-47.35809 20.93021 13.61916 
16.99661 18.52951 30.61484 
-79.87917 -3.896213 -19.51246 
-89.70713 23.68348 8.932656 
91.44815 17.97429 -2.172799 
82.67752 2.706601 23.80215 
81.79353 -5.348269 -2.820091 
-76.64978 -19.85818 11.78468 
55.17641 9.446102 -24.23601 
52.00534 -22.13234 7.54542 
71.36682 37.22094 -8.034961 
40.98313 16.75558 25.67199 
48.29488 25.37777 20.85337 
-55.80212 21.63637 18.54552 
54.28634 -30.04225 -28.54515 
86.8718 36.69846 -7.556938 
-89.41373 31.40781 -24.26996 
-17.98478 -44.75375 12.67467 
55.88412 -10.22103 -34.96754 
31.63705 5.849991 40.44569 
13.05749 19.3123 -22.1944 
-82.52073 8.914396 21.44248 
-79.71208 -7.327747 14.18913 
44.74425 1.65217 -29.35261 
-15.16613 -18.92189 33.12663 
67.69976 -4.421133 -31.38393 
-41.72496 -5.245159 -25.76152 
-66.79794 38.21617 -4.527709 
5.144149 -0.02816355 -30.27905 
-42.67801 -33.50353 -16.47289 
-59.79107 -19.38628 16.32981 
-3.415186 -35.36084 21.84738 
-4.387849 -43.92858 7.664558 
70.08825 32.05852 -0.02457136 
-37.68274 -14.40498 25.98129 
-39.04003 -8.747988 29.21825 
42.10133 -12.84392 -35.61201 
-45.6373 1.643828 -25.80468 
27.3918 -37.545 -10.57239 
-70.84535 43.10566 -19.91262 
14.39381 -10.7247 34.74339 
37.20493 40.59122 6.771705 
-68.4324 20.83646 19.25125 
-13.61839 15.47808 31.33588 
-55.04726 -12.81782 -20.03829 
38.4841 -22.15777 14.84977 
27.6146 36.12033 14.26217 
-0.8687688 -24.3503 34.53593 
-83.71085 -0.1035205 -16.96748 
-12.43598 -41.40398 -2.416581 
48.56905 21.13286 22.0103 
33.51587 -34.70048 -8.299597 
36.52499 33.69071 20.13699 
27.4139 -10.70084 -36.28456 
-42.89328 18.69087 -27.96103 
39.45593 6.190745 40.40934 
18.70564 -40.07485 -12.4744 
-69.86417 38.80434 -5.53353 
12.82735 -33.05555 -24.44263 
-20.07479 -43.77651 11.3615 
26.51698 36.78436 -11.14429 
-80.26815 38.76218 -22.92159 
3.85623 13.56556 -25.16912 
72.46905 33.74983 -14.62163 
-51.55027 -9.236661 -21.42477 
79.26057 -10.98136 -34.65216 
74.95413 -26.35428 -23.53245 
-15.61024 33.24574 0.1396343 
17.77117 -4.143508 36.8261 
70.55067 -16.74469 4.725576 
35.30691 -25.56088 8.530308 
4.102046 -19.89104 -33.46265 
12.43701 33.36327 -13.97579 
-68.27982 30.02943 4.216516 
9.644077 2.071439 -29.43015 
48.86942 -9.171818 -33.58279 
-97.69302 12.50386 13.14536 
73.77236 -14.15779 8.300892 
70.96339 -8.025343 -32.89346 
-46.92538 -18.97232 21.30807 
78.80699 24.89373 12.51371 
-76.2921 34.06036 -24.16659 
82.13689 -6.906788 -5.66379 
-13.89116 30.07745 -19.5799 
75.83225 -20.38876 -11.0747 
60.27868 -23.56701 -33.05838 
64.95107 23.62255 17.8164 
-86.39803 -10.09986 1.247611 
81.91193 0.4335275 -24.81541 
38.78418 15.44522 26.07579 
-44.08289 23.01913 8.193434 
70.86008 28.52021 6.90911 
75.35014 -14.51701 6.845466 
37.72502 1.601263 42.65921 
-65.2157 37.44648 -22.67157 
39.82505 -31.10426 -27.12365 
70.27074 -26.82943 -25.82013 
79.98231 26.08319 11.05768 
-95.40128 16.16049 15.7076 
15.22571 23.07143 -19.72632 
-24.59431 -5.738189 -27.46358 
-88.44972 0.6827568 14.70135 
-76.45175 14.87596 21.77363 
-72.20552 -8.266286 15.99361 
-46.50995 27.964 0.1255715 
-64.24541 -34.88726 -7.183097 
54.7481 -15.82243 16.92458 
-58.2112 5.723577 29.80068 
-75.70285 -2.285582 17.78552 
-31.87087 23.13863 12.51764 
-33.16177 2.65502 34.34116 
2.371969 36.3642 -6.010409 
-34.05088 -39.37135 6.310646 
84.43927 -4.77488 14.17116 
27.2127 -17.98018 32.98866 
-15.85937 32.21475 -6.81648 
-41.79213 -5.51369 29.3128 
-8.091281 29.99947 -18.85053 
64.19711 -4.017548 31.77374 
-58.04 -9.850031 20.7227 
-2.129881 -16.00614 -30.74729 
-30.54165 -9.755507 -25.05487 
-40.60321 -7.132418 -25.18267 
45.39094 33.43036 17.04633 
52.21926 39.95756 -1.420426 
31.71088 23.97712 26.68738 
8.844851 21.11645 28.24824 
64.94238 -28.79617 -16.17574 
43.14609 35.97044 16.46988 
-49.70729 38.05186 -12.5869 
83.45342 -4.514338 4.205027 
8.814831 14.34329 34.37989 
-83.52242 39.19384 -14.16048 
-74.7245 45.26025 -16.4225 
-65.50042 42.90934 -11.93449 
-87.78174 38.60908 -23.26517 
-57.03182 23.59683 15.86041 
-36.35886 34.62469 -19.83883 
82.27038 -4.254836 -1.05625 
60.9497 -30.4789 -15.95512 
40.1625 41.241 -4.868936 
30.83183 36.49784 16.184 
-18.33088 -41.11123 23.1185 
40.71896 9.466588 34.85542 
-15.1161 -40.61382 -3.270576 
49.24642 27.18044 16.36433 
-89.66331 9.659055 -12.57119 
51.60349 11.57934 31.86191 
24.80987 -14.21066 -36.6098 
-6.735598 -13.02397 -29.26572 
77.21953 10.04659 24.21566 
81.9037 -12.04809 -33.35339 
-32.7884 33.23667 -20.67749 
-13.85817 -23.86846 -21.71906 
-45.60425 19.73138 -27.81657 
0.3272103 16.81212 32.3135 
55.71377 18.75803 -19.15743 
20.17256 -16.94731 -36.0571 
36.04213 -15.85102 -37.91137 
49.64894 1.418013 40.97667 
43.78291 38.48265 13.6219 
28.89357 -29.00966 3.455492 
8.862617 -42.92306 -4.993396 
-44.1298 -37.39481 -2.204725 
-25.94098 27.64703 2.348742 
69.31896 -21.9021 -6.211337 
36.84948 -13.52691 34.84184 
-73.11348 -18.25042 12.20464 
-8.215786 32.34217 6.758857 
41.91078 8.599485 36.70653 
2.447882 -29.40667 28.13343 
82.36541 -11.65578 -30.15204 
17.39763 38.7031 6.649901 
36.42532 40.66697 9.161806 
36.0609 23.42044 -16.63675 
82.72604 -6.526515 -10.50716 
-50.00974 37.21907 -21.69565 
-31.87633 9.399862 30.35768 
83.11632 -14.20874 -18.91285 
38.61251 33.32153 20.2887 
32.45241 33.23996 19.55446 
-40.05756 16.36812 20.01394 
-63.98184 4.764599 -23.26439 
-46.80245 36.74041 -21.75726 
-18.72453 -43.92676 8.630415 
57.62974 -19.99961 6.659814 
-60.63775 -1.534946 23.90996 
-22.01643 30.99006 -19.47628 
-52.04359 -9.132032 23.4399 
54.04988 10.07932 33.1302 
68.53812 -14.10082 10.48132 
-9.015486 28.81394 14.55595 
17.29699 -22.80338 30.44995 
31.07119 -22.79066 -35.53289 
-5.380353 33.0383 -14.76733 
27.63533 -9.401469 38.55637 
-81.97752 16.58148 18.34862 
35.27161 -29.44681 -0.01610953 
56.76809 -15.13299 17.96073 
-46.91203 -30.10575 -17.16455 
28.37572 -33.61854 -4.284302 
-76.91037 34.82951 -3.71311 
30.54253 14.46071 -21.00731 
-62.87882 31.37708 -24.75896 
-27.12443 23.58056 13.63247 
-38.08012 -38.31002 2.087579 
-89.496 33.98584 -23.6322 
13.18301 -31.07888 12.28322 
-30.83345 -31.13018 -19.62393 
44.8023 36.70835 14.41442 
3.324534 1.282669 -30.12673 
-59.41515 -32.10387 -12.08359 
22.5446 -6.094105 37.82255 
45.43735 5.044026 41.61509 
39.35155 36.23344 17.68557 
67.18983 17.34994 26.99356 
-21.44117 -37.02053 -13.92098 
32.76062 40.10364 -9.113394 
91.8117 13.81948 6.422036 
-94.11624 27.89653 -16.34201 
75.25397 12.55256 22.85278 
81.88637 18.48827 16.08487 
-4.470637 -39.9126 -11.33746 
-72.90881 19.10753 18.27789 
48.25629 14.29975 27.87244 
21.74979 28.69039 -14.78923 
-44.71745 -31.17632 20.12419 
-33.0295 -35.29509 -17.8456 
19.11398 39.58207 5.771863 
16.40761 -21.26371 33.21132 
-20.24469 -16.51626 -25.27722 
83.20666 24.56953 10.95854 
-39.64711 -36.49598 -7.686494 
-75.1619 -30.621 -8.038914 
43.57517 11.3973 31.93768 
83.55624 26.07455 8.905567 
-32.53791 3.206007 -29.16579 
-23.61901 -11.39256 -25.57289 
44.19321 -23.98666 9.276063 
69.55073 -19.82477 -0.4968657 
55.2001 -28.48118 -29.98005 
26.15064 34.17742 15.33942 
-17.4308 -18.99069 32.29232 
-16.48832 -8.775157 -28.99259 
-46.19725 7.441341 33.38077 
18.12494 -34.14495 -23.6192 
60.53018 -23.26709 -6.320817 
-77.70875 11.99162 -25.76972 
-25.90534 28.08049 -4.246386 
10.65963 17.05577 31.77397 
38.49355 -35.25304 -22.20586 
-77.96642 9.587605 22.89073 
-58.96172 26.29706 11.72497 
-4.239769 32.16826 -16.41447 
-73.46861 -16.11808 12.62721 
67.758 23.27549 17.7136 
35.31065 -8.953855 -34.0405 
57.93091 -32.66042 -19.02015 
-10.24841 27.00949 -20.68161 
-62.83404 30.5238 3.796029 
-30.33913 2.527256 -29.19021 
-62.49088 19.40674 21.76694 
-80.00765 -24.30685 3.237607 
56.35172 9.064303 34.19761 
28.26546 -20.84115 25.62668 
84.67132 11.97285 -16.61356 
-20.98622 -10.34626 35.01598 
-63.66766 24.16013 15.68501 
-37.71811 -17.67105 24.92121 
39.68819 13.88376 27.64137 
-41.22101 11.92639 27.78221 
21.36044 24.21478 -17.71986 
50.80452 35.04795 -11.29804 
50.96651 5.539642 40.36572 
20.31413 -40.34842 -11.0141 
-47.32838 -37.63134 6.618667 
40.5654 -12.43987 33.97496 
26.40563 -14.22089 36.4277 
-55.0535 -34.65097 -0.3766627 
-19.34825 7.405791 -29.32628 
0.1918565 29.59408 16.40918 
68.29266 25.14923 -17.87069 
15.23739 -33.26205 -24.42337 
79.89249 22.89019 13.95273 
-50.67953 13.68219 24.0736 
-57.06006 14.74303 21.9158 
-18.5691 25.8704 13.60513 
74.38332 -16.06962 -33.53943 
-1.799352 11.4635 36.4259 
-84.84164 29.06585 1.767376 
59.55383 30.91704 -13.93405 
90.40892 10.60236 4.208323 
12.81801 37.38309 8.058875 
-82.42918 9.681564 -24.69431 
-74.9063 12.19132 -25.46447 
41.20849 -27.63153 2.924704 
-61.26278 28.90818 -25.52405 
-78.10089 -19.64168 -9.668314 
50.77919 -10.35706 -35.0374 
51.57308 41.09315 -2.975492 
37.27953 -32.42095 -5.261877 
79.74146 28.81252 6.970227 
-36.44424 -24.10234 23.80018 
58.31675 28.73345 -14.49297 
77.06303 28.17202 -17.63475 
-84.75375 -6.825269 12.89494 
8.255638 35.46499 -12.14928 
26.34676 12.70622 31.8424 
-23.83556 -37.85638 -13.1326 
65.27504 -20.72108 -0.5544665 
-29.13106 31.33284 -21.512 
-64.63254 35.47565 -23.37508 
-52.92954 -7.258121 24.2126 
42.89833 9.598933 -26.02065 
0.2646173 33.64235 -13.90149 
80.86026 -3.362387 23.29589 
-13.45916 -44.28848 4.732839 
-36.87634 31.5231 -10.51403 
32.93198 22.86643 28.03579 
-80.6395 -26.51372 7.317215 
-34.48729 8.677505 30.57966 
-52.89568 -18.49749 -18.84686 
18.71244 -40.03193 -8.697098 
-90.44117 20.00773 -24.77614 
-50.07586 -9.972934 23.56415 
-19.10721 31.85983 -0.2903046 
-76.76939 44.50429 -17.02732 
-78.24077 -32.50932 4.215639 
64.10583 0.9414608 -29.06753 
-1.623292 29.84813 15.26148 
-58.70601 -29.53775 14.17836 
-49.71503 -34.94336 -10.70553 
47.42786 6.614691 39.8061 
11.19606 -41.98588 -3.542767 
58.17911 0.3840713 -29.26641 
-17.39189 12.26557 33.08986 
5.4266 -17.36536 36.16592 
40.38953 -13.9913 31.3147 
83.03705 0.03694379 22.83133 
-16.69998 -21.59903 -24.65171 
-1.517212 -38.8726 -14.6714 
13.9963 -20.82744 32.79639 
53.66157 -16.31237 15.14388 
-67.55682 27.84809 7.779419 
90.83903 26.35677 -16.42443 
-21.53399 -37.70298 -11.75051 
68.71396 -25.03067 -16.87035 
-49.30329 38.79829 -16.39092 
5.595073 30.19262 17.41524 
-54.31449 27.62823 8.462715 
-83.08078 -15.92867 3.718943 
49.87835 -26.38872 -32.58189 
1.399749 -30.7106 26.6435 
-18.62549 31.7576 -11.9154 
-63.01057 -15.76461 -18.11917 
80.69941 13.23484 -24.18561 
51.80619 -7.48716 35.38536 
49.13466 11.68321 31.79126 
-90.31969 15.40906 -17.63194 
81.41733 10.56065 -22.80565 
-89.17084 9.509056 20.52041 
49.29522 13.16837 29.36216 
50.35166 -12.89573 26.37473 
-0.1101605 -14.12876 35.20325 
21.64067 -1.64653 -31.67698 
42.65788 39.7948 6.275868 
-30.08691 -13.25866 -24.35841 
24.79872 0.1014017 38.93022 
47.28668 -30.55234 -7.27989 
85.21176 -1.9362 11.37942 
-23.80295 30.61749 -20.45454 
74.98968 38.46934 -11.33456 
-88.20383 2.067793 -6.608426 
-40.17925 9.565691 29.8343 
46.65483 24.57874 22.65157 
-49.11873 13.61809 25.44958 
-56.24518 -24.52401 15.51136 
-59.73756 -35.34222 -7.698339 
-49.06646 -31.58476 -16.35326 
-30.39885 21.39669 16.30234 
33.1956 14.38726 28.17069 
-78.56346 43.5343 -17.60397 
52.03334 3.229049 41.4991 
-80.70271 32.73734 -2.902816 
43.0675 4.700535 42.16379 
-91.00712 34.52419 -19.53439 
93.30771 26.4074 -12.67716 
86.58788 8.388399 -3.411829 
37.5993 -25.60431 7.04407 
-67.59032 33.2627 -24.20768 
12.06463 -17.37815 -35.42928 
70.98528 32.30581 -15.18884 
10.80838 32.95163 15.29678 
-42.81105 22.83775 -26.97649 
-82.69739 40.78342 -21.34516 
-61.14011 -18.22338 -17.4158 
-6.043113 28.31988 -19.44486 
-7.505473 -27.06246 -22.46524 
-7.468332 34.14855 -7.115018 
83.47598 -10.94603 5.652352 
70.72486 36.88798 -12.00498 
88.10689 6.837981 4.962631 
19.9884 0.2887148 37.52332 
88.98154 22.03287 3.153021 
-44.12329 19.11987 14.57195 
-21.31777 -43.55529 13.10271 
65.14116 -5.055432 30.09292 
-76.10509 -18.12964 -14.74282 
10.75613 23.83193 25.59808 
-73.67358 26.36163 -26.48605 
30.28056 26.57194 23.83727 
25.39266 -5.484409 -32.99977 
31.31421 -28.15162 -31.5537 
89.69469 25.59702 -18.2161 
-95.16907 16.48717 -3.665405 
6.805557 -40.18681 4.161878 
41.2103 -32.50965 -7.637438 
47.76361 -34.05969 -12.45183 
38.75509 -14.31009 32.62222 
52.85415 35.43641 4.598993 
-10.46214 -37.44527 20.74701 
1.794314 26.25664 21.77829 
79.71319 -13.7889 6.541936 
58.92554 32.93203 -13.37307 
-25.01256 8.836263 -28.54502 
9.027393 -30.22634 -28.41984 
-20.85915 -25.84016 30.33689 
10.68559 -29.91902 16.27965 
-81.94252 14.56 21.21027 
65.77306 -5.381166 28.0788 
-40.16483 5.341 -27.63379 
-11.70497 -31.50617 -16.44957 
46.00768 22.39904 23.63066 
-27.40994 -41.34491 12.87214 
-54.24693 12.00218 25.57618 
65.83023 -21.42824 -2.763792 
68.62585 -7.750988 24.28732 
-78.02753 -17.8145 11.74319 
9.077817 -32.23652 -25.449 
78.71375 -1.788922 -30.99057 
-44.40023 -36.05361 -9.434772 
2.991042 20.61154 28.70368 
43.2417 -31.54258 -7.143453 
26.67386 -3.213389 39.33449 
44.56522 41.41412 -4.290675 
-50.34068 28.2053 4.319477 
56.30495 -10.19638 28.28552 
67.51308 28.4715 11.60054 
46.66301 -12.40687 -35.32214 
60.2182 35.63454 5.20509 
54.97673 -25.45745 -5.391979 
-84.63023 25.46095 6.147295 
28.64054 -5.474214 -33.53482 
24.36846 19.22813 -19.55521 
12.30285 15.43923 33.15034 
36.72158 1.243779 -29.72972 
-2.315782 28.88792 -18.77598 
-84.84214 12.42395 21.26961 
-91.93572 4.60067 6.147253 
65.07109 -24.3086 -10.17093 
44.11313 40.20954 -2.714159 
57.33265 30.43881 -13.65991 
28.63907 -38.07047 -17.06094 
-22.34989 24.70173 13.76723 
81.09128 -1.723602 -5.526808 
-71.43961 -18.55001 -15.28871 
-61.67687 -9.20389 19.93912 
-23.74055 -40.12572 -4.726967 
3.374475 -27.48264 30.29933 
33.39782 -29.71229 0.8608959 
-70.53201 9.293801 25.49966 
-0.3871492 -17.1982 -31.58875 
88.30186 15.94879 -14.69657 
79.61762 -10.43741 14.01332 
26.80319 42.32119 -1.017995 
-15.22774 -37.95445 23.40926 
-93.70223 23.42771 -13.00611 
57.36833 -4.278391 -31.57051 
30.15064 -5.569869 40.02603 
-15.92839 12.19426 34.53439 
27.4422 -27.97964 6.582876 
76.80964 28.86512 6.796921 
-69.41573 -1.625503 20.66456 
-26.26249 -7.550848 -25.88359 
-61.09837 -13.48952 18.19612 
-45.47332 20.69416 12.67719 
-79.55235 -26.28647 2.451569 
84.55669 35.26141 -13.87184 
10.737 36.09256 -11.37266 
40.65302 32.13861 -12.36656 
56.87043 -34.47727 -24.37638 
-19.52302 26.46143 10.37429 
53.32855 -25.81499 -3.663212 
-65.21893 -15.44297 -17.79014 
-69.69097 27.0802 9.090561 
30.17986 40.844 -2.890072 
-57.27541 4.75368 -24.40498 
69.93588 7.397868 -26.0929 
-6.166455 32.48125 7.559958 
6.009706 17.071 31.92682 
-53.16814 7.325695 -25.98839 
68.55912 -4.710878 27.06816 
-81.5997 23.57977 -26.46696 
21.7754 -23.50445 -34.4912 
82.89536 8.389485 -12.12321 
-34.26737 20.43703 -26.63126 
30.38095 -27.0744 7.787856 
54.36146 17.24164 -19.86826 
-40.2807 -31.69931 -17.53539 
69.76841 26.67054 -17.47969 
-90.86537 3.14371 15.95847 
73.36637 37.29395 -12.41664 
-70.38627 -34.62354 1.652255 
36.65816 -36.11012 -22.06219 
71.94174 -15.21244 6.912301 
-60.35232 -11.6026 -19.6981 
1.332342 17.09637 -24.04063 
30.00454 30.89866 19.62579 
-19.36865 -23.81561 30.95225 
-13.54818 -27.07571 33.022 
-41.98211 31.99121 -6.595509 
7.727782 19.58184 29.53429 
-58.98469 43.00527 -17.37299 
47.56636 2.668734 -28.91023 
-93.97388 31.19947 -13.38824 
-13.78038 17.70059 28.06756 
69.31091 33.73738 -2.852697 
-81.92428 1.708829 17.78314 
29.04086 -22.18792 21.01074 
-51.806 37.00418 -10.042 
-92.67445 19.3794 14.17812 
44.11531 -9.68342 -33.86422 
86.48242 37.63937 -9.366286 
20.50609 9.994183 -25.31415 
-47.34273 5.803403 34.05492 
0.2809675 4.341835 -29.83569 
-58.25557 10.68421 -26.12461 
10.87226 -31.73219 -26.2704 
37.32336 -8.044815 38.45736 
-18.1932 -36.90385 -12.00933 
42.96337 -21.50419 13.46182 
-82.53929 -17.23613 5.314911 
53.51704 -13.88343 23.20054 
-54.62294 -21.0342 -17.81499 
-63.81389 -17.2969 15.65043 
-2.73902 33.24706 -8.663596 
-86.67348 13.24005 20.71225 
-23.83867 -19.83163 29.70051 
85.33183 35.2743 -3.949418 
48.04716 15.8403 -19.8423 
-4.055604 12.7027 36.8266 
-93.64513 21.53218 -11.5634 
-77.2451 -6.036138 -19.44372 
-15.91788 -32.91814 -15.14828 
58.42562 31.3465 9.574898 
-13.88824 34.23722 -1.91957 
-25.8551 12.6135 -28.54694 
7.22283 -32.22218 16.3662 
-90.06061 0.238882 12.77784 
87.12805 15.13671 14.14437 
53.11214 0.3899152 -29.24121 
29.62773 42.2747 -0.3826095 
61.75471 38.3392 -8.761018 
65.76656 10.08515 -24.55706 
22.6093 -39.3338 -12.96465 
3.000382 -14.31573 36.01143 
-38.14947 18.38432 -27.92899 
12.22412 -4.909012 35.97936 
46.33905 22.75311 -16.47869 
-86.94078 23.49142 8.95842 
23.57088 39.80393 -5.239648 
-69.77069 1.550251 -22.4268 
29.09435 -35.99492 -8.785805 
17.36032 -36.65332 -20.40225 
-73.63592 42.65223 -12.09402 
23.61131 33.97154 14.30591 
53.05609 34.94734 -11.71398 
-11.84819 -33.00035 -14.80682 
-79.19613 -9.331846 13.4948 
65.11954 15.42455 -22.07018 
83.86519 -3.536268 16.97362 
-71.78369 42.44793 -11.1933 
44.33344 42.56168 -6.600317 
56.35381 -3.894895 37.28476 
68.55343 -26.25305 -26.79943 
-61.87099 -17.8283 16.11864 
57.18915 -11.01262 26.14724 
92.81973 21.27744 -11.50856 
41.45375 18.41549 24.5779 
58.42677 10.01693 33.49429 
-85.80531 26.84771 4.464993 
35.28471 -17.09975 28.86523 
-16.59154 -13.41778 33.98569 
-94.45439 31.41586 -10.00564 
-87.38101 -3.077547 12.8321 
40.74372 -30.47659 -4.282626 
46.71233 -32.65007 -10.46706 
61.20109 34.66197 -13.15316 
-17.02792 -23.43849 -22.88565 
67.18951 15.27911 -22.30435 
30.21366 39.2497 -10.01501 
29.8863 -32.37923 -3.100531 
82.70652 29.44683 -17.20654 
81.36095 36.14221 -4.844779 
68.98661 -2.746267 28.06038 
-74.55727 -21.81993 -12.25287 
-52.4981 -34.24901 -13.52666 
-91.9921 29.82795 -2.55376 
-58.07295 -0.7654551 25.49261 
64.0123 11.00099 -23.90281 
82.66544 -12.63454 6.462985 
10.90083 24.1881 -19.76974 
-93.83263 25.35549 -13.95818 
0.939333 21.38039 -22.05935 
-96.74217 24.60372 -1.444908 
-23.34772 -27.7862 -22.09143 
17.05902 29.05662 -15.64456 
65.95352 -23.30887 -8.524207 
-39.63126 19.26583 15.42541 
-85.47798 31.61367 -2.826694 
-46.19932 30.4755 -3.326954 
38.091 -0.8392864 42.26142 
-61.14305 -6.097329 21.38602 
-18.52984 -22.42983 -24.03613 
-22.48508 19.34712 -25.59924 
-18.99347 -24.35602 -23.30855 
49.4802 0.5750619 -29.56542 
55.35805 -6.250259 35.29336 
2.034095 11.82455 -26.18623 
49.19699 -11.47392 30.42122 
-5.758301 -31.26038 -20.7451 
84.67653 14.20612 -21.9881 
-21.06887 -44.00942 20.22209 
-51.17751 26.08517 8.587526 
92.07551 23.57018 -6.231531 
-37.34431 -36.99953 -7.404617 
6.450122 -27.0297 28.09474 
77.2838 19.22215 -21.40138 
58.77448 41.26704 -3.146276 
71.23945 -6.807417 24.34027 
-23.39051 -37.20002 26.22963 
-16.46597 -29.35725 -18.29889 
-32.98821 27.36327 -2.771235 
-36.24675 -20.49294 -21.83287 
11.17569 -42.65833 -7.830975 
-7.871526 -14.54254 34.7561 
-11.38027 -27.52517 33.14671 
70.9809 12.68805 29.66965 
-34.52332 24.42209 6.754929 
12.71163 35.00961 -12.61356 
1.410551 9.945347 -27.26768 
-90.85683 18.4516 -20.4602 
29.30752 -9.927802 -35.55016 
-33.50317 24.97923 -24.80917 
-84.65635 -8.219149 -7.839907 
-36.4379 -2.27585 31.65022 
8.053589 12.09232 35.78186 
-9.259765 14.49775 -26.64256 
-77.8138 -30.56174 9.206898 
-38.30555 3.62823 -27.97773 
-76.94155 22.19282 -27.3666 
-68.72543 -9.839191 16.74699 
53.84655 28.78907 10.57212 
51.60064 40.96821 -9.17588 
71.43067 -20.95474 -5.71308 
-30.21029 18.06797 21.45504 
-63.55466 -10.83773 18.67773 
25.92955 -37.06577 -19.39757 
-26.31016 -10.1357 -25.48183 
-6.938511 -35.47747 -15.07559 
44.18737 -12.53055 30.59341 
42.11978 30.71467 21.0563 
67.43275 -15.92789 7.216696 
3.479252 16.94767 -23.78163 
72.13876 36.15902 -6.296264 
51.66348 12.66515 -21.5653 
-63.74162 1.248623 24.29069 
-34.55058 30.35417 -9.452425 
-7.498474 -42.06097 13.66947 
-7.08022 4.32577 -30.09688 
-68.62836 38.87317 -22.13323 
-66.46301 -8.806543 -19.84886 
3.777783 35.82212 -7.520453 
-37.51956 -4.885707 30.82237 
-10.503 15.468 32.62281 
-73.12569 9.104015 24.62117 
80.89882 -10.1694 -32.91752 
65.34743 -12.6389 16.03238 
44.50721 10.17135 34.20671 
-2.080001 24.49922 -20.93085 
51.53495 -28.29665 -6.962263 
68.80673 -24.01011 -27.69395 
15.85899 8.720723 35.36853 
20.20104 4.216825 -28.1424 
-74.05972 33.32076 -24.32483 
-75.61351 0.1691206 19.09948 
36.13643 -37.34526 -17.27304 
31.03818 -29.72339 2.203116 
-20.86003 -34.98416 26.91077 
-37.87799 20.7338 -26.91933 
-52.60329 -35.96954 14.01041 
83.57761 -7.585214 11.21114 
60.01885 -16.32563 -36.91133 
-36.22377 32.02277 -12.6231 
81.95526 27.76287 7.51042 
8.565471 33.10115 14.29791 
63.72896 15.90535 28.33206 
56.00578 -32.24207 -17.29047 
70.91196 -21.97594 -7.625994 
24.62887 -36.23014 -6.464712 
61.60536 16.35575 27.53703 
13.37799 -36.03987 3.520901 
-7.950134 21.54053 25.16127 
-21.0512 -3.574207 36.83272 
-93.83934 5.078454 15.8589 
14.54543 20.99009 27.80482 
-46.77703 38.5103 -20.0062 
32.75954 14.79052 -21.06971 
-24.84718 20.11511 -25.47029 
81.93052 5.654458 24.73622 
-51.17924 2.102016 30.23927 
-13.58761 2.375612 38.4151 
-86.75552 3.996143 -14.93871 
26.83164 2.213892 -29.1601 
-76.41125 0.7853628 -22.31338 
9.46092 -19.92964 -34.57777 
52.1687 37.35883 1.512076 
31.9072 9.648018 34.58495 
-6.907369 -41.46056 -7.536213 
52.75121 33.45002 6.734442 
-4.318856 32.68435 -10.22338 
47.24847 -11.45345 32.20742 
-24.99974 8.769318 32.18863 
69.24094 -26.9872 -18.58101 
-40.51389 24.89648 5.362393 
74.40842 5.934918 -27.15215 
71.44112 -19.29222 -1.576108 
70.75686 -14.22658 9.376949 
-52.07609 36.75462 -22.26138 
65.27628 29.05185 -15.69366 
-68.07713 44.74259 -17.10107 
48.6272 23.67447 21.94645 
-82.19835 -13.19125 -10.95655 
-9.573749 3.867923 -30.35287 
-8.554867 12.31188 36.94725 
62.80176 24.40727 17.40107 
-97.24832 12.55739 10.35493 
43.22666 19.06432 23.68753 
-93.96852 32.77536 -11.80498 
57.18819 -27.71528 -30.75743 
15.84926 19.77518 29.32892 
-53.50556 -34.58588 -3.139225 
-49.3868 25.79373 7.497698 
-9.840258 -41.66599 16.19271 
30.21714 17.96504 29.44495 
79.10548 -2.409405 25.68846 
51.2427 32.18079 8.312518 
58.50491 -25.60888 -9.498379 
24.51871 -30.74177 2.741586 
47.55876 -35.95866 -18.31266 
61.52787 23.18189 18.47955 
-57.11462 -35.09659 -4.093502 
76.95569 -5.872275 -32.14505 
18.88739 -7.177207 36.83702 
80.49229 -18.66686 -29.92046 
47.35308 39.33615 4.711385 
-16.83168 -31.34985 -16.84396 
-20.65667 -25.79619 -22.72091 
27.43102 26.46881 21.99642 
13.846 19.5854 29.12868 
-84.01521 -2.309136 -13.20386 
-55.82699 12.9854 24.29837 
46.58124 17.22511 -19.05703 
-40.12819 33.47418 -10.46615 
-1.107831 34.42247 -7.593204 
-27.84537 -12.39703 -24.95495 
-66.76202 -35.25572 -2.044754 
-34.48406 31.19177 -11.94882 
31.24645 0.3260414 40.93784 
19.29537 -1.93913 -31.97139 
-42.2719 31.75906 -23.90957 
-86.96654 16.5612 18.2463 
-77.94973 30.30076 1.80545 
12.27725 -2.353436 -30.88602 
61.26406 -27.89847 -13.60118 
29.11781 8.260502 -25.01642 
24.36337 42.22333 0.2226472 
92.87713 21.51649 -6.802264 
-42.43555 -9.149181 26.8578 
84.32576 26.85251 6.924388 
83.75102 -13.18478 -16.27932 
77.22222 -10.40751 15.46535 
-25.74694 19.7266 20.34044 
-13.35873 3.454392 -29.81578 
71.34764 1.959362 29.33888 
82.73105 1.712126 -0.6838764 
-3.175937 -36.62465 19.97702 
-41.78769 25.60663 3.889752 
-64.0721 -30.41913 -11.79927 
-54.2947 2.544198 -24.71254 
-54.16703 -9.510949 22.49292 
58.77833 18.93616 23.36287 
12.86021 -34.70858 6.171308 
-77.65126 27.2096 5.947655 
-20.84925 29.59056 -20.66326 
-56.06585 16.6475 -27.56043 
14.04664 -25.54263 25.40628 
-76.7663 -4.746245 16.17113 
-89.37817 33.43093 -5.869709 
13.41538 -1.808755 36.68397 
-9.843182 -33.2154 28.28065 
54.18927 -32.93358 -14.76571 
18.00333 6.565252 36.70702 
60.69112 -11.03332 24.05757 
88.75667 17.68242 -17.40077 
-92.55856 25.69444 -21.15483 
37.79293 41.01933 1.602158 
-53.16091 28.81071 5.198915 
57.24487 -17.72621 10.35451 
-2.539482 -1.315737 36.81371 
6.918963 -28.39257 -30.04736 
34.5783 33.12271 20.17632 
-93.60598 24.57268 6.639008 
-68.78324 -0.7271674 -21.91306 
-56.58248 29.38548 -25.63663 
-25.93715 -38.21185 -12.36829 
73.53525 -18.61583 -2.552807 
57.66307 32.82601 7.888888 
19.19906 -23.85573 26.12768 
-13.51786 28.21987 -20.49698 
-58.95659 27.98146 8.563107 
34.48337 42.57652 0.6252959 
-23.83669 -40.91642 1.583002 
-64.5887 15.66621 23.30307 
-79.71978 21.74402 12.12808 
-22.87335 28.86284 -6.005669 
65.86683 21.62887 -19.40981 
33.86093 -15.67539 -37.76911 
-41.18016 -7.832459 28.53288 
-61.85381 -26.08715 13.50609 
-86.91339 3.32624 -12.73997 
54.71808 31.01445 8.509563 
65.31681 37.44412 -4.957083 
-12.08223 3.92052 38.56174 
33.80284 35.24077 -12.39708 
-42.5775 -38.0946 0.90302 
-82.27544 -1.740932 -17.74822 
-8.765334 22.81551 23.56811 
68.07004 2.593904 34.28053 
-83.87074 -11.79038 -7.124991 
-72.83629 30.3172 -25.31828 
45.63429 -2.215973 40.13387 
-82.01411 -8.896242 -13.96771 
-28.51552 -7.939219 33.45132 
-23.37156 -4.052654 -28.29065 
63.23718 -20.75559 0.05440259 
-59.18745 -33.64994 -10.04178 
-94.47701 19.28209 -7.847205 
1.56267 -6.462354 36.31657 
-0.3492025 -39.0823 13.55282 
21.25288 22.56009 -18.91629 
17.22663 35.80375 11.25546 
84.75001 19.51398 14.07527 
-6.194819 8.609703 -29.19984 
35.53281 40.19402 -8.279664 
82.50316 -17.66547 -13.54176 
-5.731067 -40.56584 -9.783937 
66.05485 5.832595 -26.7665 
-98.08273 18.93563 7.609796 
54.85973 35.94318 -11.86922 
26.50966 24.77662 23.53062 
-21.34977 -34.46021 -16.90328 
3.378744 3.699052 -29.61456 
72.74287 35.18797 -4.457781 
-17.95047 31.62345 -6.092596 
-9.234423 16.87903 -25.37861 
-18.06932 31.18494 -9.718342 
-83.12564 22.22744 10.22406 
46.9208 -0.2572347 40.77686 
86.91998 30.61571 -2.947278 
79.04021 -4.243759 23.21499 
13.60799 -29.22735 -30.21525 
-21.34052 23.28448 -23.82267 
7.012836 35.46805 -9.933722 
4.407615 -11.24494 -33.08521 
-51.80536 39.18802 -13.93386 
-38.8556 2.869485 32.50563 
66.1556 -15.8525 -35.80431 
43.68502 11.63272 -23.27565 
1.056633 -36.83134 -18.56369 
-40.60347 -23.25152 22.69446 
-96.33012 15.84566 2.402728 
-71.7767 19.51726 -26.89132 
24.26538 10.39099 -24.08286 
57.10755 21.59892 -17.73783 
30.12915 14.39277 29.77603 
89.48729 8.478953 10.60516 
-42.36557 5.385275 -27.53568 
-25.95164 -0.778231 -28.66033 
-61.06003 15.69082 24.43799 
-86.07137 -12.09218 7.796182 
16.77214 37.31987 8.631478 
63.00101 28.17812 13.36843 
-47.1292 16.64111 -27.86399 
72.47252 9.641198 30.09595 
27.94968 39.85089 -4.529371 
64.32125 12.34698 31.73072 
17.62216 40.6558 -2.851295 
-81.10402 31.47004 -1.38418 
72.54881 -11.63674 14.37921 
-55.32757 15.80282 21.4578 
-78.38393 39.83221 -22.35695 
43.5537 -25.08135 7.417936 
87.82635 8.102471 16.0482 
3.522265 -8.748629 -32.80009 
-18.77182 10.59062 -29.15131 
-33.51635 -25.92741 -21.1384 
-69.87147 6.146283 24.75245 
37.57679 -21.36075 16.87685 
-7.926801 -9.465872 36.15896 
66.82299 2.561291 36.2951 
38.09766 -17.9421 -37.89996 
-6.167582 -34.88495 23.48503 
21.35997 -21.17453 -35.52456 
65.04147 -18.85758 3.835678 
55.49242 -15.96748 -37.3399 
-61.64833 21.344 19.98163 
24.27126 -13.32672 36.68951 
38.80254 -15.06398 30.47481 
38.199 -12.01407 35.55114 
80.66451 1.908027 -22.41569 
76.73843 -5.506165 22.37093 
-89.49161 -4.488711 8.423147 
-58.13585 28.84446 6.888973 
-18.44244 -9.504739 -27.83212 
87.892 31.50323 -5.301023 
67.27623 -9.41986 -33.59177 
83.14838 -11.79402 -0.005905926 
55.9628 -23.23353 0.9404112 
-18.03899 13.11506 31.12543 
7.900483 -6.277858 35.54923 
51.61854 8.158957 37.98499 
81.55582 33.32138 -1.414957 
-37.82105 24.626 5.092065 
90.2271 17.05995 -12.00237 
-2.623218 38.51728 -4.94672 
1.953567 -44.83927 -2.802235 
-52.44791 -4.365633 25.95723 
27.08599 -16.34157 34.68216 
-39.24117 -29.96698 -18.13458 
22.51372 9.126398 -25.15167 
-29.50552 -18.95955 -23.07545 
72.51793 -10.58867 -33.97488 
73.17675 28.52143 -17.08016 
-70.10323 -18.72107 12.81149 
75.59274 1.55397 -29.07183 
39.69042 -17.75571 23.22225 
40.51651 10.53144 -25.49625 
-89.36428 39.04837 -17.00717 
62.44871 25.90387 15.8809 
81.81702 -15.40599 -1.786418 
7.34942 -38.52026 6.140069 
-2.412918 -42.58003 8.596446 
33.57113 28.86424 23.50385 
34.07673 -30.35953 -29.08906 
-22.08431 -32.54879 -19.2168 
-55.88195 24.52928 14.39527 
38.69401 9.901135 33.73908 
84.96458 4.938392 21.44111 
24.7392 -9.194014 38.10332 
-32.70696 10.34534 28.67871 
-4.084239 -7.169556 36.50239 
7.282718 11.29338 -25.91579 
28.02764 -25.21118 13.60374 
80.65447 -16.4486 -0.2905351 
57.52307 26.20435 -15.49823 
-82.25085 21.5999 -26.88516 
37.37405 18.9935 -18.69515 
56.20532 -1.044399 -29.84834 
-95.02814 7.753258 16.59042 
0.4530234 33.78259 -11.67673 
-89.75776 -2.836236 7.282638 
81.39288 -4.059776 21.00847 
66.00142 -11.30548 18.32834 
9.18866 -41.95174 -11.51345 
89.0411 23.39591 -19.05904 
0.5508341 -37.63882 15.84876 
-17.81702 -37.97588 24.75064 
8.015752 -1.075677 36.89915 
55.21164 41.54707 -4.015162 
-69.47114 23.90468 15.4852 
83.00521 -14.00495 -33.10105 
46.72163 -12.7963 27.61946 
21.39649 -26.65833 14.43744 
-72.81122 32.17113 0.5807392 
54.1918 -23.46171 2.174185 
-16.3576 33.06739 -4.494577 
13.13968 6.324497 36.57234 
23.41166 -24.7936 -34.08266 
67.42009 7.706143 -25.86777 
-12.12223 32.8651 -13.71486 
-44.31528 -36.72998 -4.658457 
57.779 -16.1728 13.40513 
8.904426 39.53433 -1.34269 
-2.082801 17.06881 -24.41518 
-80.01902 11.05046 -25.46498 
39.86074 -20.65347 16.27668 
40.22927 -2.103384 41.78067 
-69.92914 20.50744 -26.81707 
-51.73427 -29.48651 -16.37603 
-34.68095 34.0673 -20.9194 
-8.041567 6.285881 -29.86493 
85.75518 0.8035916 7.288156 
84.4143 33.19964 -15.0681 
63.21764 -30.00224 -16.09708 
-3.559415 33.63766 -13.73454 
-95.49399 21.13405 -4.584381 
74.4162 17.49113 21.76155 
-71.68393 23.48169 14.89611 
-35.6593 24.60851 4.423597 
2.295365 -40.79555 8.377872 
-33.78502 5.444401 -28.94743 
-27.2718 14.47394 26.89957 
5.642762 -43.64112 -8.056728 
40.84607 -29.90189 -28.43806 
-39.47696 26.91018 -25.22707 
63.41407 -6.878855 -32.64528 
-11.04047 28.17718 13.97262 
80.51145 -21.54918 -25.09128 
-92.05646 17.72577 16.44646 
-37.09525 -38.89587 9.274521 
-50.90838 -36.02258 1.539546 
-91.93571 34.96916 -16.95101 
-1.938597 -7.688305 -32.25925 
5.221649 6.174511 -28.42534 
14.65222 -26.43587 21.96353 
83.78696 18.04932 15.42498 
65.98579 13.84885 30.21513 
-0.6035067 -42.79967 -10.2167 
82.73546 -9.192308 13.27429 
-27.32082 31.69577 -14.46137 
66.2881 2.389605 -28.39155 
86.7103 5.111454 4.51115 
-15.82203 -20.93547 32.47815 
92.85374 21.93876 -9.150734 
-47.98773 38.79765 -18.11218 
81.47621 -4.962029 -4.902251 
77.10269 16.65338 18.92943 
7.488857 36.40842 -8.15855 
-20.70403 -37.21061 26.22431 
6.681724 -8.055375 35.30338 
-65.12852 41.11274 -9.694147 
-1.160308 -20.62921 -30.59822 
-89.20898 10.71009 -14.35877 
-90.71053 14.84573 -13.98449 
-22.68599 -6.533237 -27.84146 
-20.3442 -44.77824 16.6735 
-11.65407 -29.6921 -18.46788 
18.68603 -27.2978 14.81394 
16.19654 -15.16101 -35.89385 
65.4068 -6.904482 26.73298 
-79.00588 -21.07298 -7.397717 
36.88679 21.08055 26.7385 
58.92132 39.19172 0.3940028 
-70.90073 -32.02613 -9.700091 
70.45885 14.86009 28.53173 
25.74552 -21.29864 -35.47309 
-29.69195 -33.04784 -19.27108 
-62.45896 26.26785 -26.38646 
68.30501 2.234986 30.78525 
-7.149816 -18.1629 -28.16673 
33.29832 31.18345 21.28096 
47.64135 -25.12818 5.149482 
54.20249 11.76789 30.88939 
78.24553 37.10793 -5.956779 
-77.90311 15.79102 20.0953 
16.43455 -16.57211 33.61927 
-18.52305 -28.22453 31.23825 
77.9745 -8.753126 18.07542 
-44.4495 38.43951 -19.95938 
20.09481 -9.662062 36.77796 
-31.6475 -40.28994 18.70744 
-61.35558 14.95653 -27.01748 
8.215681 8.366922 -27.05231 
28.61742 35.95793 -12.00514 
13.06751 -26.45741 23.74506 
-3.35178 14.22134 -25.98864 
-87.20665 32.87594 -4.968713 
80.90782 2.415225 25.51411 
-92.14526 22.90285 9.697278 
-45.30578 14.73281 22.61571 
82.70007 20.3356 14.54271 
-42.59735 35.58487 -21.92172 
-74.37561 -27.64306 11.22267 
5.203681 3.916074 37.23115 
85.14869 -2.315857 13.44355 
-68.20955 36.18413 -23.21156 
59.8894 15.26685 28.54416 
82.83483 -13.87414 -2.931937 
25.78688 -30.4458 -28.93159 
-84.85316 22.98154 9.408123 
81.213 1.261539 -6.368365 
70.38712 25.17727 14.80896 
78.54207 4.708059 -27.70631 
-63.69297 -28.60189 -12.95973 
62.2459 10.11415 -24.34727 
63.29919 31.88028 9.290585 
24.64141 41.37613 -2.16612 
-50.75449 21.37685 15.15842 
18.42475 -25.45028 21.13282 
-74.77186 -25.56256 11.61211 
33.79311 16.61004 28.03757 
-86.69583 0.7611334 -9.255295 
-4.730394 -29.07074 33.14007 
-65.57461 -33.73796 5.983861 
-47.95277 -24.14165 19.84054 
-53.17725 -29.36295 15.95458 
49.06422 -28.99438 -29.42548 
31.87798 16.24161 28.83269 
-37.01061 -35.00239 -17.1068 
35.2702 -22.26894 16.35414 
-93.95435 17.71252 15.47159 
-63.44902 42.61297 -12.58715 
43.5605 -4.197238 -31.3785 
-14.29228 -4.357844 36.95773 
-79.01523 -4.418282 15.47469 
-60.62314 -28.54791 -13.73211 
-71.36992 41.26065 -9.517086 
43.23309 26.26588 23.99216 
-84.57401 33.08238 -4.890742 
80.37672 2.738031 -13.81968 
82.96738 -12.70856 -5.458683 
43.24886 -6.490753 -32.30888 
-82.09803 -16.09037 -4.941351 
-83.56562 -7.817589 -11.72115 
51.85342 -16.66289 16.85696 
53.64186 38.88126 -9.876365 
-40.60128 -25.02 -19.39687 
15.39753 36.20775 10.45846 
-32.70877 -36.6256 -16.26211 
20.39018 29.81009 17.96518 
45.8745 -34.56934 -11.8771 
-63.04146 -33.48843 9.309715 
-85.00994 -14.0805 9.336782 
-20.32936 -29.00728 30.37737 
30.58466 16.69369 -19.52966 
-47.0863 23.99741 7.095765 
87.31267 21.28048 9.70422 
80.93008 29.90894 5.090505 
27.56559 29.77619 18.95401 
88.97981 23.70337 -1.60228 
-18.82651 -26.18437 31.14248 
-85.15427 13.26553 -24.90717 
82.91102 11.99173 -21.9805 
61.44739 -13.24881 -35.48022 
82.86827 -9.6287 -5.04927 
-87.30678 -2.285571 -3.678612 
2.846232 -39.42749 10.29744 
66.34092 36.84161 -7.746143 
-80.91364 -17.26916 -8.022766 
-20.98505 22.61707 17.70772 
69.27611 30.76815 -15.67582 
-44.62553 -36.382 -6.762071 
77.13123 -19.25219 -8.560104 
9.543245 -39.73867 1.903507 
34.63886 -23.4968 14.15011 
91.41022 16.95892 -7.566148 
-59.1764 17.29918 -27.4722 
49.61925 38.5672 4.206733 
81.25909 -10.56378 12.75115 
11.923 -23.78989 -34.68795 
-75.40947 24.60144 -26.80796 
59.10206 -27.01156 -11.63724 
-50.72081 -2.014028 27.81935 
-4.45099 4.987933 38.65327 
-48.40642 22.53328 12.34249 
19.27078 -20.34681 33.41201 
69.67801 19.73923 -20.58184 
45.438 -23.21268 -35.51499 
84.62199 37.26812 -12.54366 
6.102956 30.60841 -16.76637 
-48.96165 5.948399 -26.3008 
17.24496 31.83486 16.4597 
27.56316 -20.52552 -35.93455 
-82.98495 -15.32218 -2.44528 
33.46531 12.71726 29.92969 
83.34129 -12.91442 -20.48101 
-4.763195 1.087309 37.91364 
-79.17367 -25.11562 9.850746 
-33.14936 -2.778831 -27.6254 
-5.642084 37.2082 -2.756395 
70.52001 -13.4595 11.25989 
-30.30359 10.81802 30.32928 
33.71879 -10.22997 -34.86997 
24.00379 40.95047 4.603882 
-35.68295 -37.34965 20.38449 
35.80116 7.311378 38.9461 
-16.27171 -4.932487 -29.11652 
17.19897 -8.593603 -34.57447 
82.04684 -21.77465 -23.34179 
17.89182 9.166571 34.72583 
40.45129 -35.30024 -21.19766 
-79.49061 2.603642 19.15133 
31.88933 40.1897 -4.002305 
70.87494 7.778431 30.8003 
67.98029 -23.48719 -11.63323 
10.89842 18.94907 -22.499 
48.29404 34.42231 11.76046 
-63.22862 14.26258 25.60215 
-56.86133 31.2613 -24.85741 
14.89977 9.176018 -26.34973 
-95.6461 9.666559 8.760937 
-93.32558 26.19207 -19.27477 
-68.41968 31.39484 -24.86626 
-64.30646 -8.984593 -19.97741 
-77.13366 36.769 -6.207718 
-12.43786 -10.77052 -28.46791 
-51.44213 24.40353 -26.81499 
16.33643 -11.5999 34.70211 
-26.56785 -40.86372 4.761148 
-22.60835 -25.01748 -23.00029 
-47.23472 -7.10121 -23.65722 
-25.26875 -41.72398 8.163918 
82.85081 -16.49349 -11.44263 
-56.52801 -3.77825 24.50906 
-5.71849 21.61506 25.64052 
-12.95782 -40.37666 -4.1114 
-71.71899 2.84842 -22.76011 
27.10105 16.12422 30.68579 
-69.48586 33.119 0.5750365 
-73.30627 42.83122 -20.28518 
-35.63626 -18.92807 25.36034 
85.86837 3.281665 5.026415 
1.773533 -35.41953 -20.21622 
14.3823 2.767783 36.70984 
-5.748229 -39.81364 16.30623 
11.19081 -36.66679 4.310494 
-2.138108 -43.59159 6.50179 
-53.63907 19.95396 -27.59291 
-78.92565 -23.49358 -2.004689 
-49.28192 -33.65089 -15.2901 
80.61748 1.478609 -11.90255 
-16.151 24.78752 -22.4139 
18.03308 -33.01335 5.06441 
-63.43563 -14.07958 17.25367 
-11.98013 31.90272 -8.967681 
86.69427 35.94198 -11.93631 
28.06547 -36.8243 -20.51746 
-32.34398 -17.32483 26.96697 
6.863864 -37.11159 8.461143 
-52.4387 -19.31912 19.14154 
80.84921 0.9410905 -18.52825 
-54.12278 -5.360592 24.73903 
-44.31964 36.79568 -21.41257 
-96.22223 17.06432 -0.1874534 
5.888857 18.57808 30.40503 
44.73401 -16.85565 22.15686 
15.78859 -29.36417 -30.09904 
-35.62433 -11.84914 -23.88509 
-74.90692 -1.367996 -21.70559 
-36.38079 0.006791458 32.31184 
-40.55137 21.79012 -26.88866 
32.42548 20.67688 28.14661 
-49.19657 24.8994 -26.53757 
-45.97959 9.252822 -27.93253 
53.79551 -18.00954 11.79879 
40.56124 -28.32958 1.091244 
-92.96058 26.4155 3.692114 
-42.46447 -30.39993 -17.58327 
38.74486 37.99517 -10.56204 
-33.36231 -38.81897 21.19247 
-37.28264 -10.17666 29.01878 
74.67116 -0.8666968 -29.83917 
16.23737 -2.056837 -31.54656 
-58.58886 32.31221 -24.29665 
30.07391 -37.74326 -12.79245 
-96.4774 9.483778 13.98542 
-13.67637 -15.47736 -27.04525 
32.77688 -30.56766 -1.53257 
-8.442601 -25.50274 33.70161 
-2.520068 -39.92406 -13.18241 
46.79551 30.38072 18.49321 
39.0601 -3.903951 -31.62007 
-48.5045 -35.66547 -7.562388 
4.575007 -40.59615 -14.84922 
9.844195 -41.09986 -13.36143 
27.03832 -31.06525 1.01508 
-15.587 -11.0146 -27.41596 
78.79086 8.655261 24.55587 
27.68921 11.40405 33.01152 
-17.59917 0.1712833 -29.29296 
-49.15488 -22.34828 19.73551 
-62.85362 22.50224 18.74507 
-90.54492 34.36227 -21.78615 
48.68513 8.673681 37.81298 
-10.16649 -32.07564 30.11498 
-91.42016 15.32939 -11.99107 
90.42001 22.63217 -3.373157 
-18.64878 28.4649 -21.08995 
-97.03236 16.87475 11.71402 
10.40281 3.940574 -28.70322 
25.27463 -38.71573 -12.02342 
-80.39157 27.3215 4.762194 
-2.819816 -35.45098 -18.08821 
-22.6867 16.51798 26.09621 
51.62793 -11.79372 28.33613 
20.13909 -5.584239 -33.37868 
7.865767 38.74048 0.8539399 
41.89999 28.21066 -14.0887 
-63.6748 19.55475 -27.29303 
-73.67287 30.99206 2.260604 
12.31581 21.00002 27.9277 
33.91746 19.21073 27.98217 
-55.92435 -34.67611 2.819881 
-76.17824 14.27928 -26.42389 
-21.1764 9.759133 33.46843 
-4.236317 -34.12827 -19.12851 
-41.20163 35.82255 -15.41664 
92.49347 28.90971 -13.76315 
33.55964 -19.11739 24.87868 
-13.30747 -18.37084 33.70713 
-72.16564 16.84866 20.66628 
82.04945 -3.948664 -30.07166 
-55.50773 -26.92385 15.14059 
52.41341 -34.77421 -18.65553 
-49.41594 -37.28382 7.817698 
17.93538 0.5532852 -30.24414 
-59.41972 20.44578 20.10529 
24.53556 -7.874761 -34.17264 
