   0.541877806812138592560634377149E-001    0.996222230395572982872316031300E+000   -0.678597973067601171803527595032E-001   -0.495394071150241071098255942409E-001   -0.996828117101720504509392620902E+000    0.622860505902444574138806072844E-001
   0.371641170987150518522552191277E+000   -0.710753753817109681940835263985E+000   -0.597253665926118025626803908269E+000   -0.379419894077635660473803254943E+000    0.691537966338456366734047824895E+000    0.614667214914369517719339870324E+000
  -0.935051027783225294952216020194E+000    0.352110705785921291969449036541E+000   -0.412022610116776425704818018026E-001    0.944741814687322337578188337601E+000   -0.327303972180694018661795022731E+000    0.183033706197676998512943007286E-001
   0.822412731561098568272301787386E+000    0.122614376153593466704693494239E+000   -0.555520489025092139958473215563E+000   -0.833294425739886839889581835576E+000   -0.116519024698952560083055294017E+000    0.540410692819856313486667808398E+000
  -0.541717781137290124723291200426E+000   -0.838467934411365500383245765621E+000    0.592736751317911527123910569293E-001    0.498516494993399685270936766299E+000    0.859110558952454494304126272004E+000   -0.115803072998504307737982498694E+000
  -0.590318616780227716918672320026E+000    0.756480268143715158750089468819E+000    0.281534251187828767393757904104E+000    0.532602162649469524676990524413E+000   -0.775977885052617291061943494010E+000   -0.337924929903632703435976828486E+000
   0.702405906718600767488624942218E+000    0.689595980826362565907857850969E-001   -0.708428201047291444658913948549E+000   -0.688263973724744256206810598411E+000   -0.633912687534793946579289310699E-001    0.722685442996085742422283312048E+000
  -0.896607766514864168637047411643E+000   -0.301972181379605958598805031182E+000    0.323893986819868547005153967237E+000    0.898839487770606439771488783917E+000    0.273885314847558714668879700135E+000   -0.342161379374013323608735188391E+000
   0.154304497957155888190125824164E+000    0.555245181707045823542797853643E+000   -0.817247153620800162583365429562E+000   -0.154714494832521849123612573325E+000   -0.551036464243524826923649957587E+000    0.820013560962690515758167300063E+000
   0.504559372558703393099737191331E-001   -0.963250711510699963978569896603E+000    0.263822412182441291946762455168E+000    0.244992544595667748948195791812E-001    0.942143317604290984824961823848E+000   -0.334313857960607852477190211541E+000
  -0.609149128786182597472280479839E+000    0.353567555471879047280440459574E+000   -0.709878385793421985321013724921E+000    0.684830384666441628126734758592E+000   -0.368168451601672345409059709612E+000    0.628855576013157920340089291112E+000
   0.912702215288997501828632860108E+000   -0.265828403514548754954952620642E+000    0.310338405762906982753466575498E+000   -0.892909169868618506676559934778E+000    0.300526112773842289618004761474E+000   -0.335257020665605758313888455710E+000
  -0.448821653777333733984807036658E+000   -0.352069359576879006816171970648E+000   -0.821344196514290494638357942077E+000    0.471185781273045031517006117127E+000    0.394549832707031516585473626415E+000    0.788869056965073012365793047456E+000
   0.499059059065628300332378960163E+000    0.829191702673917619643330392769E+000    0.251756183203628829654378107221E+000   -0.542267940025520378717350062169E+000   -0.783551859298974701231396718371E+000   -0.303301772183412055038220086174E+000
   0.277352612299707155076063690159E+000   -0.613108348471106125029885386802E+000   -0.739711890863977548239354263822E+000   -0.336068550034602093871078493108E+000    0.667178139872174036870109282168E+000    0.664779105684246009909753615823E+000
  -0.451323902628536494421420068591E+000   -0.326054022317598718139147965792E+000    0.830659683291937641286043473319E+000    0.342102245812278554016928703513E+000    0.249492372868470553653248591095E+000   -0.905935764439540933454897552753E+000
  -0.208137737697228428248637791417E+000    0.854234129161041002826310170558E+000   -0.476406060753594583682791123140E+000    0.104492251753885954662894588509E+000   -0.915629307676566883451596278087E+000    0.388206569041706627978627065691E+000
   0.777235432309277432079596679296E-001   -0.568316964140212898699440528794E+000    0.819130562912947396248105665302E+000   -0.781113981461515150121093807124E-001    0.470526136289254682188769115946E+000   -0.878921933136475509196980688001E+000
  -0.892200456550713734880619008428E+000    0.262952980829601254896060994679E+000   -0.367197596946828245257319150155E+000    0.892085768078893233965408493318E+000   -0.270741589532580826333179535695E+000    0.361776138086058177078971868222E+000
   0.512682328304603243709028988176E+000   -0.258942716581676011989286604758E-001    0.858187809829214501301843209731E+000   -0.393532732796382928302684523912E+000    0.150096233842607254189806628524E-001   -0.919188065318340243509392963520E+000
  -0.358497389802788176689885380913E+000   -0.805099935929763849914526821491E+000   -0.472539643490869336924878785478E+000    0.424932473820540257706018255204E+000    0.796298166174945322364562510259E+000    0.430513209134371431996574382661E+000
   0.171068179531671036889249841904E+000    0.412809486293978598743864238206E+000    0.894608297512057207462060143616E+000   -0.114906756274702597736029185406E+000   -0.303830478324098086794216454279E+000   -0.945771366559474487994862041692E+000
   0.642920482731037333492482883930E+000   -0.600283811432549137371886814818E+000   -0.475723237415308224932602543816E+000   -0.616984176421818502877923248838E+000    0.646949787523026519727826733942E+000    0.448092064724428232808202925747E+000
  -0.335328662328112184395148989996E+000    0.255106227291459803523828843160E+000    0.906904350534474481992083764801E+000    0.166099215267157317396470657866E+000   -0.116012802451391983955086848564E+000   -0.979260986844165477093866535836E+000
   0.708743701208196756071279782469E+000    0.485386099671866550259711226269E+000   -0.511940133456089913222947102705E+000   -0.749957249791616158989303352289E+000   -0.449392092474958358291343019091E+000    0.485397641842205409717323871237E+000
  -0.305989501404219814883848562653E+000    0.785728450005155494787988686773E+000    0.537588344258776524004093013325E+000    0.338729350714320200966187397245E+000   -0.748115828161033952950930753179E+000   -0.570600678775959205954021633252E+000
  -0.459243166352840212751354885368E+000   -0.345626264520053266373751327467E+000   -0.818314242471760783258423096792E+000    0.436398111575258491985780170534E+000    0.320902183577256804407973906720E+000    0.840582224882787307613637395672E+000
  -0.835561757819857948748036937332E+000   -0.818101707630031848487460824398E-001    0.543271244249792143300499169281E+000    0.839939628429114282863420112212E+000    0.761907313940691143473534431986E-001   -0.537304748763677171217270745482E+000
   0.246048928193155517963616027842E+000   -0.606612351784313587161205205434E+000   -0.755963874532178673753436435671E+000   -0.268155825756940212280650466548E+000    0.634413210594234435736709850264E+000    0.724991262937788146237247205965E+000
  -0.987905755146582701236579230581E-001   -0.785973968278418641838935069240E+000    0.610315773496112394559399840106E+000    0.940259557167821126959544915149E-001    0.783180314143592558607990282827E+000   -0.614644381076968280163967290258E+000
   0.648826881669516380458652377815E+000    0.722553268734956705817593598028E-001   -0.757497752710472193313018296843E+000   -0.656923678490706250764482847646E+000   -0.769942816576524780321724013443E-001    0.750015440661231510355289417379E+000
   0.714665354644848870090493506094E+000   -0.264756297872714831551219825655E+000    0.647423766637498941535403332872E+000   -0.717943725034659373406488684721E+000    0.334158313976845887940861500010E+000   -0.610651315304821969229529056156E+000
   0.163712415688553238062717061458E+000    0.448015346680875335526951623827E+000   -0.878908694966566725161709840989E+000   -0.158629928950631916692232480562E+000   -0.507275452810552899258282618379E+000    0.847058534351060055924639654560E+000
   0.593337059176561281153834661371E+000    0.566145706074067503090773205866E+000    0.572215146340609707142549508679E+000   -0.652978847113847580853640883365E+000   -0.551505952482510349541621543323E+000   -0.519095183562927602750097278104E+000
  -0.558947961587361166150269553765E+000    0.339291096470057100104932376413E+000   -0.756610023786018997187741526817E+000    0.553458351249696171084272025922E+000   -0.338146919442014490622185457591E+000    0.761144213867414024125770339995E+000
   0.389020347112787862102285882357E+000   -0.866975293602849641472678270720E+000   -0.311475536462333917941824103417E+000   -0.488961891721498152695027808074E+000    0.852126933810712413360091358673E+000    0.186536744687173261363771505922E+000
   0.956221951620516067661632317954E+000    0.147805836597198857503181952471E+000   -0.252572789323896844402131300910E+000   -0.959893282085991367116638642159E+000   -0.180333891354210736808226061380E+000    0.214673180987358369304774705212E+000
   0.956252681157530530047945291273E-001    0.982751347648066261389222024928E+000   -0.158289597869537688976136954201E+000   -0.832793690529914525653446283018E-001   -0.986953832245611474994024281466E+000    0.137792161264119275790980483460E+000
  -0.916824511986984962813962978153E+000    0.372655079151116109026603007038E+000   -0.143391095269902496534687007313E+000    0.942290847462987978051860851187E+000   -0.325665680678272749672677834286E+000    0.776519363302758204422008244104E-001
  -0.663430433518264431406200993673E+000   -0.725860125118040184438704925521E+000   -0.181623618082535640751920517334E+000    0.621991310825187040852871062004E+000    0.780003168165111042238465344921E+000    0.687158417714217205821731929781E-001
   0.481365662963283814928863350620E+000    0.848632113457084762969245023973E-002   -0.876478796590949591181018520420E+000   -0.623878322209328047982811630546E+000   -0.121619907131033020884669122718E-001    0.781426852020819823544529377528E+000
   0.859249430343979640718815319251E-001    0.382922301708461986537191362979E+000   -0.919775741699480284342233000289E+000   -0.864894651813963374341857424517E-001   -0.452110844978833157256637860981E+000    0.887758613737519036824481790936E+000
  -0.221543358827861709145173289015E+000    0.160291292000659744084765845803E+000   -0.961886293627281364872514975525E+000    0.347064896232736874769493968754E+000   -0.258165639527526035372002335368E+000    0.901607708690594033660508391574E+000
  -0.276066962840027361839394910754E+000   -0.224183911790743775938442726336E+000   -0.934627522450779835546372510364E+000    0.329281762038249650357765314016E+000    0.291474392418315270290024711527E+000    0.898118143538676925413028567467E+000
   0.125641877622013844448395317945E+000   -0.363386794503766684845742122155E+000   -0.923127378083811432261043548513E+000   -0.177160359886778795170944653073E+000    0.492882511196694431490494619577E+000    0.851869143144196418062118431728E+000
  -0.766425872661207912030045707694E+000    0.480180834822793146066507294619E+000   -0.426635380136705680140585580408E+000    0.655021454872111524528816739689E+000   -0.591311522322700686941258800966E+000    0.470422764357373135775975387753E+000
  -0.807707407271477699365326774552E+000   -0.328222793509160246492520385267E+000   -0.489773970378000394673993337458E+000    0.833311465599847710782740714402E+000    0.147061337333471992916928129680E+000    0.532883631163056632661917704992E+000
   0.112311370356615802673248771421E+000   -0.868973175734114352666986667823E+000   -0.481945822622405449053302546215E+000    0.991914539511782399039505378159E-002    0.859250053213790880204601483537E+000    0.511459633408862535160302109914E+000
   0.859722816565146959510647762107E+000   -0.154151536197611576831923649820E+000   -0.486943510651088891244213926993E+000   -0.813779315088693588077087574836E+000    0.276752550230254714908353186049E+000    0.511049168157846727198714582038E+000
   0.486051850583034005635133228293E+000    0.718222966585279562932442879297E+000   -0.497904979704208604088723119005E+000   -0.463024070983420732944884472610E+000   -0.740683463633017950600139638281E+000    0.486823085309782668145052052372E+000
  -0.627807547045669685823357841724E+000   -0.483769320964658627584847555382E+000   -0.609774489435145480005675189111E+000    0.549985468249490390059505138702E+000    0.374140180581976461827664586296E+000    0.746682737170530038867958568649E+000
   0.204107471895101980840573458367E+000   -0.652985359993259001639378348050E+000   -0.729349202749316852565015441115E+000   -0.179643250959686399617874772451E+000    0.609872290027747356331673633838E+000    0.771870515203778427088584469134E+000
   0.655795488418032483110867990424E+000   -0.883540553863519415058462784928E-002   -0.754886887539796969970088542406E+000   -0.649833887066449461534639752032E+000    0.983557462962344821475765417647E-002    0.760012618771434685715784132008E+000
   0.199603847994665707049271806924E+000    0.656251668576947987568165235949E+000   -0.727662044740340984128576889244E+000   -0.189992419537142326782348569455E+000   -0.637592615696091666482689776736E+000    0.746577884033701109056461757908E+000
  -0.629841670548147326598911864878E+000    0.444105079627608067986777127890E+000   -0.637236336291391140797984589046E+000    0.586035992626018651293123517499E+000   -0.425731469881692319196872529480E+000    0.689430584540032368495525005897E+000
   0.932546339647752365936523011299E+000   -0.344961521759680497206606577027E-002   -0.361033827451707644362747757704E+000   -0.935361839462387140888766533807E+000    0.299606149311648106672977277670E-002    0.353679590721699646343861451776E+000
   0.297299253171144313150844234577E+000    0.903354009588385990037484602477E+000   -0.309135386884882641762684804296E+000   -0.297359973370860111463462579833E+000   -0.917368464174179532914564489078E+000    0.264598086114749605965988379010E+000
  -0.689029079695493633638332580886E+000    0.552203850864774528201146817321E+000   -0.469371744381886428852687016365E+000    0.757649072075965510095621674682E+000   -0.567887672630496639529215830888E+000    0.321669822732481850523307208040E+000
  -0.782057143024104332401794813074E+000   -0.562106507856724435350394755873E+000   -0.269115029067671750067900079108E+000    0.780456224662218585302851285607E+000    0.557801782198376029427131008315E+000    0.282392020358777243167398521469E+000
   0.264846155431843946106354631588E+000   -0.880405371858287616174268883661E+000   -0.393373734705358615684170606803E+000   -0.268834395398830691790350489643E+000    0.885618807632969749556936011539E+000    0.378691689131544159678922779072E+000
   0.527864709519030748429265574245E+000    0.782741329023200210152031675415E+000   -0.329658702726598014366734459443E+000   -0.548705383055019374634748350830E+000   -0.777046460975090620857403594062E+000    0.308417249991843721047459588639E+000
  -0.565987389268611008050300410313E+000    0.758075324283183369843146596552E+000   -0.324006292997293753104731504565E+000    0.505096871079294392932117043878E+000   -0.824782622238239286157864563392E+000    0.254186500191730342058088388147E+000
  -0.887740386623669223092084030951E+000   -0.315583089542139519916950462215E+000   -0.335148205354431578672172232189E+000    0.949747865223368439882199656301E+000    0.208260362815384812602053254611E+000    0.233680580672974749497257406530E+000
   0.414316069105952197413959707350E-001   -0.935271148121591247313687247924E+000   -0.351498650694602871177872958054E+000    0.748865635237780731229899583025E-001    0.962187194355032060322781751682E+000    0.261892736865287868665755330887E+000
   0.895341690580443631638583162496E+000   -0.336535231353355688591446956072E+000   -0.291731546402675653053048466804E+000   -0.886539515632367007607674130815E+000    0.386283386503612471943277117667E+000    0.254622922247053075693388644057E+000
   0.663398102292247965325298410760E-001    0.956382758674584633049729984083E+000    0.284483828167334764710842962942E+000   -0.129323198927043472857265102417E+000   -0.961904188393756664173153810928E+000   -0.240864780675433387765010664048E+000
  -0.902847863061899644420315526013E+000    0.198624443115003389008327022624E+000    0.381331963991764123977827331477E+000    0.897943274348901285890702749189E+000   -0.276934295926173175947481039818E+000   -0.342060333554547860631474196714E+000
  -0.637866329716761029155454149910E+000   -0.721678463457551418078419890683E+000    0.268899127546401548597131920726E+000    0.630835947533045149418527134643E+000    0.725858740117186509486061865646E+000   -0.274180773752602505866142013294E+000
   0.577958440164982827697565020367E+000   -0.738978980014387757369358031178E+000    0.346228405159015027913364843205E+000   -0.552388344991126483191911339216E+000    0.768048253110164014622827925553E+000   -0.323989193048764610436015121894E+000
   0.833917582759894988372909122739E+000    0.383566192103582993010279561862E+000    0.396810334340035756693102878839E+000   -0.888634961487456479086055376307E+000   -0.313009969159599927168658965740E+000   -0.335190489764988771917555142611E+000
  -0.554934308564653225772357002243E+000    0.572075649566443072369006599278E+000   -0.603968016000021696230269209526E+000    0.517947234720991899790656720018E+000   -0.577545322189394936342297139487E+000    0.631008766073836505135757295795E+000
  -0.715067597118037408865179165907E+000   -0.482991149699467328390352104130E+000   -0.505369054121661548750982486280E+000    0.717107110968483346052588475664E+000    0.445282508461314274059659657705E+000    0.536172434070267075911925042557E+000
   0.108658365623871495515512978946E+000   -0.784150077415802895143748303791E+000   -0.610984464343193744028557738993E+000   -0.121358392412571268711128958888E+000    0.790915184783017170177920521850E+000    0.599771048876721098817365292253E+000
   0.840585485644374599995420544834E+000   -0.746284737792244899125025197596E-001   -0.536513403584099197896466726280E+000   -0.824902118894475278558226358880E+000    0.920605109652710232635100554339E-001    0.557728748195947117726310510209E+000
   0.372458124975132897213107508875E+000    0.702895806647116793783712932376E+000   -0.605980552607018311111615817556E+000   -0.398226100853532640534480461946E+000   -0.669604494867752631948139690560E+000    0.626933643260507984941176803156E+000
  -0.230874216218362959943154297105E+000    0.849855407395131398202104254645E+000    0.473754031968923542543629459468E+000    0.237400622750389672329971245118E+000   -0.852577151281342801171813077796E+000   -0.465567551952149556906407286064E+000
  -0.842232380886744867825341103828E+000    0.922264029393490091519765889072E-001    0.531167494474872732395079694085E+000    0.803151870145886383586725787804E+000   -0.120714752163256474778480440093E+000   -0.583416679647855819383729029444E+000
  -0.363422666777697084687172446274E+000   -0.723295072255016590609721564358E+000    0.587169654975286744069017752226E+000    0.393836239151868390429374454544E+000    0.632795016476736711825351299438E+000   -0.666680946070096442317361953144E+000
   0.552548499172424278993536317829E+000   -0.571200560896001591341149291249E+000    0.606976173580474757995580637900E+000   -0.596293250532439398956752358263E+000    0.577764967478050982656511458141E+000   -0.557334730413011450601460194207E+000
   0.722996650564998739661571299032E+000    0.375860417443068766648715183414E+000    0.579659201489388241765669576981E+000   -0.705115717128651682157882781040E+000   -0.321968921917554707789834589403E+000   -0.631781480242492407672024203182E+000
   0.458797708039072792574876109257E+000   -0.172376317541769251045756622404E-001    0.888373529068488798353558320086E+000   -0.545909019686590231546597595295E+000    0.237980284178644624431117598737E-001   -0.837506415538560847436560364957E+000
   0.151517157601818940755667633692E+000    0.351195903140618351747859582917E+000    0.923961031954005608816034043312E+000   -0.181525012361360250138586076447E+000   -0.399984992924913584001137114667E+000   -0.898365557733634865408971553005E+000
  -0.289938297719347640415185543769E+000    0.211860254342831336182304387034E+000    0.933301139046448258867639114670E+000    0.413887265158538095069829140052E+000   -0.306722415687387200303652038548E+000   -0.857098997464400041130093752937E+000
  -0.335094698507633829172580696312E+000   -0.260845451691945641550598132841E+000    0.905356942516984755587375079698E+000    0.409348873231588580928191187089E+000    0.321509988598724122855037147135E+000   -0.853852930670895516997101367686E+000
   0.135792477982443163822050752021E+000   -0.518128409524849010009111100591E+000    0.844454471340307394231803461079E+000   -0.135882053200906044595984016662E+000    0.518572118613488083692209135943E+000   -0.844167652433226432692009832842E+000
   0.820255413923750907899662270939E+000   -0.396990575873265328680486883296E+000    0.411800362550337283607869879399E+000   -0.817085929900204681267771637895E+000    0.400423516674996707600879052807E+000   -0.414766910990674900142089704951E+000
   0.563313716205917456921108528887E+000    0.761490858767208629985477934202E+000    0.320638938914565097225135261247E+000   -0.545642871106347116038132159898E+000   -0.784562560109891669771064444216E+000   -0.294508822422410442846476949735E+000
  -0.580165395420981642884100602078E+000    0.754457431625736270223536316046E+000    0.306923602580045142632640987745E+000    0.651382865497185175914276806229E+000   -0.718230858512063996883639207971E+000   -0.244631961153279139917188905902E+000
  -0.900509562747854600510526607071E+000   -0.186856380619951977744983086298E+000    0.392641338146251932436121417842E+000    0.897044017213907660638179911317E+000    0.281897853083129832416960593407E+000   -0.340361031270997128318165385918E+000
  -0.321039785221708096348856443102E-001   -0.938041356225193707424794656383E+000    0.345032967373042829871239634731E+000   -0.371389514890561399573486399332E-001    0.956441031031317679157135836781E+000   -0.289553539854106337327375942634E+000
   0.718219738107854768843937288541E+000    0.551393878567738417014371071350E+000    0.424411590876487077510364341825E+000   -0.691031352609380509838158209090E+000   -0.539024871589476541194453875189E+000   -0.481588888491832155497862134660E+000
  -0.345529817953392028469904954396E+000    0.841661002761349723100268297190E+000    0.414989037609254225013757059473E+000    0.337755743071646343553977441924E+000   -0.863553339184966903328006559341E+000   -0.374428482362938741238086610312E+000
  -0.960729378625967942017983350219E+000   -0.169807155961715575157791345217E-001    0.276966995042375885737992660768E+000    0.978492028376033422716357727975E+000    0.236956086443919390119027496564E-003   -0.206284498342383692215576535899E+000
  -0.234488152336690788285684314789E+000   -0.840969575321877062323033081940E+000    0.487632525367890771394427429586E+000    0.276785040471804524384790995157E+000    0.905414777749970654543466640233E+000   -0.321891474883993745117671390960E+000
   0.741088731965744900491753385772E+000   -0.546446975811456213262275716776E+000    0.390106644367816556027466816093E+000   -0.750353912681395011696087533715E+000    0.551197104424266605079847843879E+000   -0.364898284180709139684944613270E+000
  -0.197327532033032908952381562708E+000   -0.831638365756531697706068807263E+000    0.519075595365027325350093490292E+000    0.192617916096450855609054844816E+000    0.829816654993765549106886258639E+000   -0.523739112052573839236202642440E+000
   0.713591213403054490835617445148E+000   -0.303646224969720104331165198984E+000    0.631337112971821475051899870211E+000   -0.716685781711523280530935113960E+000    0.331678447543625236437880895786E+000   -0.613474447493612764605592214341E+000
   0.705426988318137859805451500664E+000    0.556296798987904038670896587885E+000    0.439211379165218440965197588672E+000   -0.670888357749212783702673756753E+000   -0.563297710854140280056644148478E+000   -0.482290887725498764846117799789E+000
  -0.397261386512859946227104304366E+000    0.657368336487253220909833292196E+000    0.640351669764248778518509561897E+000    0.380172546561707147727222720121E+000   -0.692075149724548815262315937928E+000   -0.613596628066460246810957724494E+000
  -0.843060999737910840838928156332E+000   -0.937018521529753581437377871994E-001    0.529592403291452288175180951031E+000    0.836869877305465932126994910286E+000    0.992299010454512457455489800940E-001   -0.538332829388329567607414803064E+000
   0.576958939539999002807362530368E+000   -0.756415867297533386455656023301E+000   -0.308145124552377328739695095661E+000   -0.609557417250320021367305622522E+000    0.741566761834239431463572992830E+000    0.280211514427583206992399292349E+000
   0.899823950384339618411302744626E+000    0.216515157278327654281589813641E+000   -0.378732154673276391040689238386E+000   -0.900509807780015034278232885095E+000   -0.236998978085377087135955890696E+000    0.364573134608801537844518243079E+000
   0.657747684555641797486874784157E-001    0.926552330757103906327716654087E+000   -0.370370703759348711577747058108E+000    0.375092321145066972274859355375E-001   -0.951886749571458746163232965094E+000    0.304145809598723621755152950447E+000
  -0.877797438688661252242320129926E+000    0.323316540400831375433784605033E+000   -0.353465799384980898283633362823E+000    0.885546475772223045912052075413E+000   -0.310541540505281434142731977446E+000    0.345501651035132149514071475132E+000
  -0.529149549140164214685301190475E+000   -0.784078872556014953501872694446E+000   -0.324377983617953636209397849088E+000    0.517362989384178854779875180576E+000    0.795186215622383284031779180211E+000    0.316250564741975751636114815413E+000
   0.257817048577703486094560646540E+000    0.208075838812258226465959362874E+000   -0.943522556574699603460885213946E+000   -0.374189921606760301811298378690E+000   -0.320865621671368775913216930009E+000    0.870073074745663313916591760880E+000
  -0.145141337864427863760345494180E+000    0.468867087006668854089112820416E+000   -0.871262099924474401614493710026E+000    0.165200682148178756794013889687E+000   -0.539046909999614210094170958261E+000    0.825915954221520187683466112908E+000
  -0.403937137136054915401937101609E+000   -0.160212785330525953216043858256E-001   -0.914646438727279095645152398743E+000    0.524542188387242448045100761701E+000    0.290273387212270097878143464636E-001    0.850889479432367766883121643268E+000
  -0.947240331754130273415088537384E-001   -0.284904681857048355190322863073E+000   -0.953864078260061806160114675498E+000    0.138622397394345646745647404921E+000    0.413076131035782376129063972972E+000    0.900084407658055845997240370821E+000
   0.231475703754529569508876624756E+000   -0.161546632943609589333941106708E+000   -0.959333979360643692564292261770E+000   -0.395437350678661620279878890073E+000    0.263918455714199992657436028243E+000    0.879759257082113942698705369331E+000
   0.330056475897715795509769122990E+000   -0.779991670140312537384003571895E+000   -0.531672565805032328288952137771E+000   -0.321084883555564550541034778230E+000    0.793503721506617649674849049466E+000    0.516968414419350896317493020294E+000
   0.796893919893435114829118132089E+000    0.128954437237517017851191214632E+000   -0.590195589236001239754303063541E+000   -0.788055490707353502590226456632E+000   -0.137829478124182285951167021465E+000    0.599976314970856023716931129000E+000
   0.504252917097426838326017870478E-001    0.740701382841511008347618115724E+000   -0.669939363982040315928094624602E+000   -0.761863696640817293055650090730E-001   -0.764432046364082617240936370122E+000    0.640186912994188698805292529932E+000
  -0.704172265396982889156477440744E+000    0.268592085186608841061239820140E+000   -0.657266850237246145841700857685E+000    0.685071416598064941897536882785E+000   -0.192187589412851974137967871385E+000    0.702667122210793051854999433492E+000
  -0.664925636406420411329622907208E+000   -0.552236618875294912441306272681E+000   -0.502900203641536691013488720053E+000    0.582953633610104242172388783454E+000    0.569420243699163922868679456536E+000    0.579590930852408275033477164343E+000
  -0.514226777826287617349435262695E+000   -0.848707293894184257220036582894E+000    0.123558691548610140870728137692E+000    0.455918555892661779781366423240E+000    0.863577828947549732649010738044E+000   -0.215340669040909157606235870064E+000
   0.650257357358465010929065855227E+000   -0.748826305908744930560251816004E+000    0.128158233368942343580518095708E+000   -0.684729328215676959828469726351E+000    0.691829793039428083926900391861E+000   -0.229166499611810279821237449394E+000
   0.810621891209885680962066316578E+000    0.474087971263945625121718753959E+000    0.343704444245553116704586509455E+000   -0.770149568903806848050617506943E+000   -0.492189557957546770555606614992E+000   -0.405732769880416704418031653475E+000
  -0.720183899543326478626774374556E-001    0.995902843698761223593464588646E+000    0.546889149746678604998057438579E-001    0.159433413796058590042839878056E+000   -0.950318866541172106367037899395E+000   -0.267348159636898703842726451965E+000
  -0.966531286747023967678867174018E+000    0.182841083175605846367863554459E+000    0.179962246158224297270282521777E+000    0.955592500195571621959884162214E+000   -0.146797552594200602295929704645E+000   -0.255525834549717022669322834360E+000
   0.980544220889774104822882209019E-001   -0.879491786808271872856588055602E+000   -0.465703260935104378792788860318E+000   -0.165555593645491463970313860364E+000    0.886728968632802989437471268203E+000    0.431628406850260955403225902090E+000
   0.837245141801674999186686191336E+000   -0.225074509540996635916952087572E+000   -0.498359345938623827073857423007E+000   -0.896294764253657630972083211407E+000    0.517314444070816147910278393394E-001    0.440431099300489128475258472787E+000
   0.390028700218129878727319916136E+000    0.797057141751348449794927233099E+000   -0.461061303721454157939163249195E+000   -0.439563104732469137788801912583E+000   -0.758180810460328054736380105573E+000    0.481607864976966995605700485002E+000
  -0.638238950473372505820862779999E+000    0.618132354701559010197863566586E+000   -0.458871914775522077003077826259E+000    0.711027319239763377675615967093E+000   -0.560754976420592418476457782311E+000    0.424257006676679950931049985032E+000
  -0.822763071563152657294579612519E+000   -0.200496600193893194735805841422E+000   -0.531847761471886507849993516373E+000    0.814717335361055870272662752085E+000    0.314728640391217737173631475715E+000    0.487012881122949733790616829426E+000
  -0.424098190402258478524781175617E+000   -0.352237740790470294208604476118E+000   -0.834307676376260590597992895907E+000    0.417267488035551535919812798406E+000    0.345592940501697358565303811746E+000    0.840507800620488664657716740703E+000
   0.164469843804771875191211452963E+000   -0.585062362921407229386311299213E+000   -0.794135820859161041785586983815E+000   -0.143611470587036383726016634174E+000    0.498002578214217104934537298611E+000    0.855201249769796207920392238786E+000
   0.606959987631107343551906566996E+000   -0.445758038527727127040355421811E-001   -0.793481298535589403155249510295E+000   -0.529795711679988022321184246762E+000    0.326983031347936841897653790603E-001    0.847494734412904859641545959511E+000
   0.150300443312597174910797459103E+000    0.444636028310303326341982240133E+000   -0.883011086605641606689939622781E+000   -0.123889953784381741282018228229E+000   -0.374887786825771917994266609955E+000    0.918754824009201242258782536883E+000
  -0.371864875328703642231374571959E+000    0.327816272793133287979229217099E+000   -0.868477406608131468709350221440E+000    0.354938788894143948562328300159E+000   -0.308386039149514273668245579886E+000    0.882562466342203205591302723579E+000
   0.908507332543588234234947990375E-001   -0.986240080047649188738336225587E+000   -0.138118242005724429943332881590E+000   -0.191335881195735022509238469679E+000    0.931100711677301139401663374764E+000    0.310551195909909364235900306685E+000
   0.963503680018344230538031873182E+000   -0.188538234037556934348763612221E+000   -0.190036819845806566751152509369E+000   -0.935771511775266204365703733273E+000    0.672145601446888417353883912671E-001    0.346141417132346110894822022922E+000
   0.527276178140498257862405067302E+000    0.835216149275808713660002157570E+000   -0.156185197616290010231188023509E+000   -0.414993818110271927962065651829E+000   -0.873839390024252811054858034716E+000    0.253347293990483182237658638688E+000
  -0.643515158260700560983935626967E+000    0.748310556062197802092204128548E+000   -0.160995505448412536770422371383E+000    0.649723448167561216870618578920E+000   -0.740825570023191934806705963557E+000    0.170402217418281080811162784548E+000
  -0.776885025597903783395067179388E+000   -0.513947613235308832320529616831E+000   -0.363740990062260908214406633877E+000    0.760111812497736703719681011459E+000    0.524520684886430761772379743228E+000    0.383546716356267563956987450011E+000
   0.443274020401563280481501961431E+000   -0.782921871652944535527162213961E+000   -0.436510579166742194018461534373E+000   -0.473944968595253833684048195865E+000    0.802058735176862331657671161749E+000    0.363425304663469569337787856693E+000
   0.887744756853254899728018040538E+000    0.184645171445105528439093994119E+000   -0.421681642168073192634405834273E+000   -0.914233411201353852730925467228E+000   -0.207770331262080136957185602067E+000    0.347863132985347737441818903650E+000
   0.889058197058027523629430298443E-001    0.945652631231381339266793510489E+000   -0.312788836545686824263884503743E+000   -0.686492722391524533198941831097E-001   -0.964532489849962466243263259741E+000    0.254881057446148367828853055089E+000
  -0.797206678033865026612418708607E+000    0.367247264883041401751621301135E+000   -0.479156507765609597906161484184E+000    0.888550133512752824297947757735E+000   -0.364950382631812167079516758596E+000    0.278010572553208886825873477695E+000
  -0.626427670511714975837390218954E+000   -0.705008457739134718066608419251E+000   -0.332492779069791162220356503577E+000    0.623251285596759828914002597565E+000    0.735683435168163395239212581073E+000    0.265193737145425138148516389664E+000
   0.400313486267885481742720553743E+000    0.366015505899082999169818428686E-001   -0.915647005786873004406860910209E+000   -0.580716760150632714020604733170E+000    0.334179901299738145747826452534E-001    0.813419499653054475148737648053E+000
   0.237523799269133944164045618823E-001    0.307876285905683908085918001320E+000   -0.951129863386030552313386353269E+000   -0.153475168481204725064086705290E+000   -0.466606270495649954727944525926E+000    0.871047622689945793687608954282E+000
  -0.384798115770108254185930327953E+000    0.251383532154820088031990089804E+000   -0.888108512435919003989627195564E+000    0.456910586181880299425028888635E+000   -0.351800083452959967218314566824E+000    0.816988015528637322159394158184E+000
  -0.318815587598267869403183015400E+000   -0.267996748152685612930418089514E+000   -0.909139353500857528037506772994E+000    0.448764987329042079873189532064E+000    0.305708712054613492580393008777E+000    0.839733391929530283905362408686E+000
   0.146918228996325721224068078752E+000   -0.320157386385493819816523170668E+000   -0.935902923348032294503397352928E+000   -0.113601887485339779404218566132E+000    0.492286602067410204122873316034E+000    0.862988130036961468143262696198E+000
  -0.624100261664768711168852507565E+000    0.694937351576199458279132849356E+000   -0.357156745385306946140853605165E+000    0.515587055950860976762055012197E+000   -0.735276683603167609085383046072E+000    0.439929751534777544741501509734E+000
  -0.821995122153337708947890128011E+000   -0.485824124616313268237648905779E+000   -0.297151374045136016676637949240E+000    0.847894997354191234898448880555E+000    0.375584206384047417303117554920E+000    0.374179873024460408423518392530E+000
   0.265932111651070507740557484437E-001   -0.913439147718440110065016337251E+000   -0.406105558365479373011455641012E+000    0.162171109001132554419258425587E-001    0.895809682831558133960001266545E+000    0.444141888881556237355844611298E+000
   0.883454989769116652459906530948E+000   -0.243928992185444025977846917571E+000   -0.400007409710674707444291898091E+000   -0.862178376768290661062844559601E+000    0.272453165284247831468855592362E+000    0.427103874203676320118131806321E+000
   0.517139554674034345643347950066E+000    0.742953757333006497734154213099E+000   -0.424954580462794324105456709432E+000   -0.520358882982037071789918433718E+000   -0.739182167746745532613894290190E+000    0.427593680714424026869440759086E+000
  -0.732911798029068314481739004278E+000   -0.355813868439642425978213376413E+000   -0.579859282357206907801613565812E+000    0.633095981034088372129662674654E+000    0.367408567540256376435761218005E+000    0.681322554519151438872995183704E+000
   0.128292686614390093560988381592E+000   -0.810336957076970826679428751748E+000   -0.571747324048392405739035914475E+000   -0.143981784845539023631810859478E+000    0.758144254328366320484072984175E+000    0.635992559124380255421566524031E+000
   0.680644956164120759200343186007E+000   -0.335383434958104533974351847814E-001   -0.731845354678089870281642000681E+000   -0.666665974634254053524309269151E+000    0.227449595120214116972889761419E-001    0.745009493282975983844720621956E+000
   0.261532763777246414139596348232E+000    0.637005590378946035544350412010E+000   -0.725137567153299153845290759311E+000   -0.278211704452090962135106898270E+000   -0.656695541103093493685293740432E+000    0.700963061652450865926293162439E+000
  -0.498262522105910770459120741432E+000    0.392066772811534748021645878308E+000   -0.773316303152730110663177371565E+000    0.449984946851703816651562227200E+000   -0.308119175558674875575588877328E+000    0.838198139618498427124813885120E+000
   0.389078980422481851293617827845E+000    0.900638195441339251531189205763E+000   -0.193567528024640499937195357603E+000   -0.439494792843288219169588269410E+000   -0.887418445250510284217988018456E+000    0.139042547778736619033710954584E+000
  -0.721955817315590946142759481535E+000    0.671929217172939939717276224869E+000   -0.165199651796053088973179915948E+000    0.652460725203243997549819512273E+000   -0.755754032029246480513750859446E+000    0.559539555241057808736615593908E-001
  -0.871516127927022849927827938688E+000   -0.465469806101427132274344402401E+000   -0.154264378166150111848176602580E+000    0.914412277402331645951345205974E+000    0.396725829240054192780100402981E+000    0.803666805938421195797665900919E-001
   0.200378354579935153224021541965E+000   -0.962669494662864423638654775561E+000   -0.181977908168500018548153643845E+000   -0.396894603558389511647294637606E-001    0.998216461573675249548541793014E+000    0.445941989500160454627014781270E-001
   0.977185269767860210556987408605E+000   -0.169499217564316764214100537333E+000   -0.127980325807518856028340682604E+000   -0.967703054202390381893011802516E+000    0.244206896410463189040197777018E+000    0.625602959786381112900927743565E-001
   0.197746650646699333219378694447E+000    0.850831033633019473018098745652E+000    0.486808806786586321412402107846E+000   -0.252271935994944552450368466215E+000   -0.851768924420956657102686788316E+000   -0.459182501517783477003699283039E+000
  -0.785037041956833067272736198267E+000    0.231614588187152540400232902811E+000    0.574518516058935438422474528387E+000    0.755639880059178173425228347830E+000   -0.384528996334016216667153574750E+000   -0.530231857438333261137871924364E+000
  -0.639135131512625213807777623124E+000   -0.576286439894161041914586305124E+000    0.509313481915070440932909668650E+000    0.637991111802859858108903742459E+000    0.577088610467492206232826276200E+000   -0.509839265778195841649627062261E+000
   0.485615661811168362979030618088E+000   -0.666761740896958678492247539854E+000    0.565337253221258980600587293716E+000   -0.429825935048199088508420332698E+000    0.728123118034791840067254946353E+000   -0.533934818627923841344398870963E+000
   0.815181047268454366298337687194E+000    0.213153213055333741197841424418E+000    0.538558787820320939284091923934E+000   -0.873113501657343060972190162229E+000   -0.122205758093234142131156516650E+000   -0.471951868215934424317580571476E+000
   0.390048738549179239824921839646E+000    0.237826649162976558287706774644E+000    0.889550710473610086906837003341E+000   -0.439889131145056389547188473906E+000   -0.296733222100290619294875150036E+000   -0.847612498257562846492651663546E+000
  -0.171327026418916453230982379024E+000    0.454455938026905056139128855934E+000    0.874137775416746152774225000028E+000    0.267916482796426979151961913579E+000   -0.547553768455899821758079673668E+000   -0.792720397678610697070568226549E+000
  -0.493433467909198746714398055764E+000   -0.360591153120941024302884330821E-001    0.869035760455236290300253666814E+000    0.580411474485302109899136414032E+000    0.853929274623462084114393091115E-001   -0.809833667011447466544782238991E+000
  -0.163892692731293872501823501872E+000   -0.465514303883383717394383181851E+000    0.869733072930571251770929461661E+000    0.164486417134145660607224372539E+000    0.506088289343975662415224717765E+000   -0.846651558769757538338855147385E+000
   0.399840281466866357384778424696E+000   -0.284424734577139009585145270029E+000    0.871338234945087849742426243493E+000   -0.480581820945243116222570229034E+000    0.302828077101295474217112008758E+000   -0.823004416206915701682012419985E+000
  -0.131189199866915111887374822661E+000    0.891024040329378319266618003681E+000    0.434586646588904061828278466698E+000    0.109030245601977067315092809604E+000   -0.925335854205600394522203712477E+000   -0.363133532554574765522378427301E+000
  -0.920819787636366730355585964037E+000    0.171599954465624676599494472482E+000    0.350206188301566158956589364546E+000    0.945879766053853904895773942458E+000   -0.251992947466525507021632877149E+000   -0.204477437867945523921110011370E+000
  -0.380037881078132175453767259190E+000   -0.740794685948142349526964678753E+000    0.553890279944175057550287560821E+000    0.482753019230743777447193011280E+000    0.815288748592475164243442092594E+000   -0.319771447821904441033082541652E+000
   0.627756123460864662266763327420E+000   -0.700622993229315340481397433754E+000    0.339189726872413389920242125353E+000   -0.628713841416235120024657940563E+000    0.712405649522667358753525468270E+000   -0.311764488259691946535436627870E+000
   0.796210256711787530716581453727E+000    0.381057884450295675323888009442E+000    0.469940544968418860054027710042E+000   -0.791622679815836500233795647542E+000   -0.381054858996451928913877668478E+000   -0.477630324871011246920435681879E+000
  -0.783112755448986943158355369038E+000   -0.114043969272064676450796385846E+000    0.611333284981087496027799630734E+000    0.732287425281480471657280697131E+000    0.829272062273256759706994636555E-001   -0.675927662728749956428030655849E+000
  -0.155880610874198252287339743644E+000   -0.692588754481562020880418732189E+000    0.704288330386898707499976331707E+000    0.177527636716768407213152083344E+000    0.596023615482606391653713477710E+000   -0.783096282706540029019674596860E+000
   0.707351877104900816228590338662E+000   -0.389518845352077799280928933815E+000    0.589854550776509133729426343626E+000   -0.725272899159285420557092966824E+000    0.394655042384314544125157257336E+000   -0.564115785336414684031711719356E+000
   0.556772770318728819041141400563E+000    0.528775364781014049590767209135E+000    0.640625238210541914060859283125E+000   -0.524394966955256567094294088059E+000   -0.438565511292890198854172387960E+000   -0.729842593259944765537962616200E+000
  -0.406314817489204443728256727086E+000    0.733603868987526987946625716040E+000    0.544732624775904001025379724866E+000    0.390911577820277446929276943699E+000   -0.725017922754714923232405272482E+000   -0.567042458736997395891979424460E+000
  -0.115311122461534405331515684984E+000   -0.942563292777641256402872305471E+000    0.313492877343061090609077298036E+000    0.686126284158412566302769255354E-001    0.931313551453255845340613984470E+000   -0.357697324705390367354635479940E+000
   0.855069231143904501124851770555E+000   -0.189282590157076913517051214327E+000    0.482730474503526726213188035534E+000   -0.859367509440811571989837740562E+000    0.237380739408574486433431516978E+000   -0.452921481357790188736874314232E+000
   0.624500080005032099682588442901E+000    0.702222458718783066980457534761E+000    0.341881951182941972583948786484E+000   -0.592582946204799192455065763235E+000   -0.714403918534710469342020879616E+000   -0.372118923261758932922660565300E+000
  -0.577638483425049029251578303349E+000    0.657602704333457922371616803996E+000    0.483624302242693423303856016422E+000    0.565856914449829882513067469686E+000   -0.677678753904922109844260270431E+000   -0.469635453171063227565868977742E+000
  -0.902400994574001825650328335766E+000   -0.227540069189926520192315067500E+000    0.365920704394949179221824609039E+000    0.856825429940642989953080287190E+000    0.286710955808308452602187776000E+000   -0.428540558671543350683023729668E+000
   0.607964009517131907767883009499E+000   -0.599536767490852723168620069997E+000   -0.520514579583004518545543167630E+000   -0.670729260815030319796062659392E+000    0.558913280167726592245011870430E+000    0.487584048076508952076322372981E+000
   0.779425722267806612866986181919E+000    0.235540933390013135865088395941E+000   -0.580530802081224098235948781229E+000   -0.781120032558541731611869752052E+000   -0.295488647161612339711515968618E+000    0.550034502676280184024564177267E+000
   0.232360476512662504136025513477E-001    0.817406688973797483752134815833E+000   -0.575592208868780282820828604553E+000    0.144396924888170834176050552072E+000   -0.846143941084090401085233317141E+000    0.513020427516802982296126496282E+000
  -0.787672226968965502762546349878E+000    0.246339945143617641708301535685E+000   -0.564702660068455800403454937220E+000    0.810332405289089502794474901344E+000   -0.204336093864722942818711925774E+000    0.549188632149743177587095732943E+000
  -0.485540322915051270379745325037E+000   -0.662648470311317813660289561628E+000   -0.570217151283279353027266299546E+000    0.432106295249169447503443637299E+000    0.709157466035137599634008747375E+000    0.557117436428496880630476226635E+000
   0.836110624596893075092027156780E+000   -0.510596036912913996907000178923E+000    0.200526084400557494649055016850E+000   -0.831070798275864564108022000403E+000    0.516772880559775947229084214939E+000   -0.205589684009360673796031190393E+000
   0.741547252238143296207295683543E+000    0.637722471596342995263626233137E+000    0.208369196185786981146531110842E+000   -0.700365753216041651154443015291E+000   -0.698301363631675081211645400170E+000   -0.147861480015147061314881370908E+000
  -0.413260418704453256369637153203E+000    0.892545971955114119032389286231E+000    0.180492421666175839580019271931E+000    0.550791196245907718624473385937E+000   -0.832020751064136335916570118740E+000   -0.661099685121120390510622732249E-001
  -0.973429621191898037764226654266E+000   -0.312106909913120095568882056673E-001    0.226849433223983890099128064921E+000    0.976777351534474772731111632176E+000    0.116734831422975976609017522492E+000   -0.179663531808618506499497701677E+000
  -0.221052357233843910285284651746E+000   -0.953397898766559990293915968821E+000    0.205349219596445713899691320908E+000    0.149544210349241388310745882978E+000    0.979201236866950825032946296085E+000   -0.137118441025470783504419350846E+000
