ply
format ascii 1.0
comment VCGLIB generated
element vertex 1638
property float x
property float y
property float z
element face 0
property list uchar int vertex_indices
end_header
53.79827 57.31297 38.07686 
-68.80399 69.58516 7.964818 
17.20271 -44.28333 -46.44876 
53.18077 19.54902 -32.5449 
56.42891 -38.11646 36.25691 
69.14394 79.79065 34.88647 
-3.591743 -73.56118 -14.42416 
-89.37059 30.46687 29.34932 
-113.2363 -28.79475 43.18202 
-128.9937 -39.32545 -16.56714 
107.3915 53.65045 9.66131 
46.71044 18.07406 -34.41024 
39.09476 -35.51671 35.07036 
-101.4031 -21.8892 -28.62656 
-62.22239 57.72281 21.09553 
10.64466 -18.57134 38.45144 
84.84838 45.66269 -6.850192 
58.18142 -0.3674113 -38.76197 
-83.63635 49.6814 36.81376 
-73.74236 -56.24458 -16.64042 
88.93987 33.7655 -30.17567 
78.15839 25.90201 36.36189 
34.89946 -76.51746 30.22164 
-95.54342 -71.07056 13.45689 
106.3914 44.09938 36.01295 
66.72942 -66.02895 -15.94508 
66.6496 -9.084498 -41.75713 
24.28715 -13.48325 -48.09661 
-30.48537 -23.45968 39.35454 
103.1683 -73.69115 16.60057 
-12.34762 -65.09025 -28.35908 
-59.83283 -3.781677 -37.31184 
-22.27652 1.156927 36.45473 
-73.03543 -47.65858 -21.96584 
59.68726 34.00242 36.91027 
52.51311 -29.94133 35.90226 
23.81998 27.38838 37.52344 
-57.63895 36.20216 -38.22685 
18.47469 -45.79279 -46.3181 
66.20679 -28.55039 35.18045 
-29.8442 28.24231 -46.5685 
-14.19066 -11.03223 -48.92146 
72.52196 44.04042 -14.6251 
-9.783908 -46.35813 36.18254 
-9.839454 12.11434 -50.02583 
-76.99097 -0.03667951 -32.92479 
33.8544 44.86971 37.882 
111.0135 46.33331 11.4093 
-77.86543 -33.48412 41.76344 
-79.35409 -30.5012 41.98275 
-27.93954 -34.67909 39.3943 
-36.60633 61.65509 20.72786 
29.6208 83.73799 31.73078 
106.3356 7.902349 13.99338 
-107.4563 -4.840573 -22.71875 
-48.28339 77.34586 -26.21238 
113.6608 -26.45304 3.948879 
42.00035 -45.10344 32.03459 
-110.0751 -47.08372 44.03896 
81.59467 79.31834 30.89851 
-41.66696 -1.080999 40.75181 
60.53546 2.349233 35.82194 
-2.392317 -67.05435 22.86298 
-53.04723 3.071566 41.21176 
31.06752 -65.45367 -32.39866 
35.2202 -10.86998 34.90293 
98.17085 -15.835 36.18653 
-9.808874 -7.213995 36.90754 
25.63322 12.66948 -43.73392 
-50.93764 82.10157 -16.26441 
-47.22129 69.23148 -39.71095 
-2.090545 -34.87908 -48.26707 
114.6616 -55.96176 24.90248 
-96.50089 3.86926 34.0622 
48.01183 -49.81446 30.40633 
-28.40432 -19.17599 -47.34799 
-98.63624 -26.21823 -30.21432 
20.4627 52.4645 -32.05693 
2.01637 -80.8183 -0.300554 
49.88603 64.65749 39.82225 
-64.33884 46.31416 39.00217 
-50.33502 5.928815 -39.62686 
79.16979 75.33803 36.0658 
-71.76328 70.63406 6.448817 
-2.228786 -54.08029 33.47855 
-62.66068 80.25475 4.531537 
46.20365 15.2278 36.42792 
-38.27003 -24.76746 40.00127 
55.78028 83.25706 31.82848 
-75.65168 56.38428 -32.02732 
-118.4976 -14.28122 -18.77236 
-42.33353 74.02467 -33.27702 
57.51701 -80.76076 -6.708216 
77.73423 -64.07885 -27.78324 
65.57967 47.79802 37.48492 
66.33563 -43.0222 -50.27606 
-13.34221 -75.1804 -1.380751 
-22.87847 48.53123 25.3762 
17.18052 -14.15618 -47.98513 
-64.81998 58.95602 18.31675 
25.76903 69.43447 36.15231 
89.63911 -57.81332 34.97735 
65.93881 74.31223 38.89798 
-30.12363 -39.93521 39.08443 
-15.8611 21.40557 37.38242 
36.99952 -80.37847 28.60424 
-82.26022 29.57399 -28.33117 
-65.38902 -13.819 46.121 
-41.93264 -54.71714 -28.86734 
58.01204 16.34737 -31.90946 
-49.0658 78.37437 -24.38177 
19.3806 11.03729 -45.15428 
-73.61928 -34.10729 -38.20513 
13.02199 85.97765 -18.29275 
-93.22198 -49.88234 -30.07082 
-29.95293 86.75012 -18.55651 
27.22705 38.08231 -35.26092 
-30.32286 1.822457 -48.66448 
116.0031 -52.52951 28.62298 
-117.782 -44.85513 -24.0109 
-83.04002 6.395668 38.3678 
-125.6822 -34.20125 12.89627 
22.6883 -54.73277 29.87213 
-84.71817 51.20299 -28.99323 
74.7287 -78.85516 26.55091 
82.03641 -70.41295 31.81439 
-63.74037 -5.778771 44.79039 
-30.97874 62.9036 -48.8589 
7.183159 -60.76358 -40.26905 
65.7101 -10.42213 -43.23265 
-123.3102 -32.45554 20.65383 
114.3297 -49.79489 15.54897 
69.59373 90.83013 11.44178 
69.32771 -14.21304 -44.40807 
108.215 11.37903 -18.9294 
-85.82597 -68.16448 9.09655 
95.3447 -40.42331 -34.96381 
73.22365 -42.58915 30.87347 
-25.17808 -64.45213 -22.41866 
94.31335 39.66381 37.49475 
-106.5028 -69.04557 18.57108 
-128.5821 -39.61524 -5.531082 
16.77204 2.105524 37.47657 
5.199658 29.56541 38.62828 
38.7933 79.71124 -11.33513 
89.59855 -8.625122 -35.07754 
83.9276 -70.33706 32.43518 
25.67013 92.15364 17.11379 
-1.529317 92.1972 -13.82291 
106.5559 -44.01305 -21.45807 
14.74301 -2.398073 -47.11499 
-58.18712 62.72482 14.77993 
-111.0425 -5.809733 37.9548 
-28.62676 24.15234 -49.78572 
-101.4867 2.545144 -24.0866 
-63.48922 -33.09617 -40.86443 
29.73509 -63.39777 -33.18997 
87.31866 -32.97945 -39.2434 
74.72654 79.84481 33.91223 
-113.6062 -15.74462 -22.63754 
20.97975 -40.41616 -47.50817 
49.37711 2.301267 -41.64937 
23.33278 69.70474 -16.11199 
2.1943 60.88231 -38.97397 
-67.12882 -55.57382 -4.52087 
-89.47928 24.51541 27.59677 
-2.376602 9.22282 38.15813 
47.78869 86.08672 28.79618 
-91.60242 -59.10949 -19.05632 
12.49012 -21.48064 -48.27238 
114.1388 -24.93678 23.82847 
39.10471 -71.5275 -27.07618 
-108.5183 10.80138 27.83346 
36.61845 -63.78625 33.93412 
-102.0708 27.42815 21.158 
-112.5045 -3.307693 -19.88407 
110.886 -54.2509 11.16138 
-28.62227 36.58472 -46.54358 
5.899918 -83.07211 18.79298 
-83.70316 43.07407 38.74932 
23.05012 38.04509 38.53907 
-21.30209 8.10646 -49.62113 
-42.26366 34.92008 -42.75554 
-14.02494 -39.0816 38.35814 
-113.4942 -2.168044 30.65744 
15.72348 -11.26855 38.22948 
48.18628 25.91218 -31.20639 
-80.57699 72.16388 2.03805 
45.1455 65.27167 39.6521 
-108.9839 5.302603 31.93308 
66.87848 -6.263987 -39.55706 
91.7218 31.15628 -34.30046 
-100.129 22.39713 26.07378 
111.5438 -39.51875 -8.707699 
105.4784 2.265216 31.56228 
-37.05519 76.86682 -31.37977 
16.2208 85.78381 27.85774 
109.4362 -20.73638 -24.94379 
9.042899 -28.53271 35.81016 
-97.97436 12.35981 -23.85386 
-73.8339 -19.2175 -35.31436 
-0.2696807 -22.87594 37.90163 
-84.31463 29.66994 -28.03935 
4.687957 82.72957 17.4755 
55.57655 -85.85976 22.02744 
5.523188 -69.47102 -29.20285 
51.25856 45.34941 -22.05904 
-18.8012 -68.74777 -11.37503 
-25.49433 86.78818 -20.56748 
7.980128 84.32689 -21.25293 
13.70459 30.02468 38.00644 
86.25516 32.14751 36.92646 
-43.18246 92.27063 0.3025469 
-37.31308 79.19845 -27.63922 
-74.22881 -66.25307 24.64204 
-27.80556 8.823071 36.9632 
-103.1086 -69.09381 10.17076 
-88.73839 0.1744539 -30.54544 
84.19376 25.4755 36.27427 
63.38586 -39.83986 33.48504 
-125.337 -30.56202 0.8781694 
103.6819 60.17064 9.473744 
-79.15528 -49.70712 -26.94985 
117.4221 -39.7176 22.96241 
-79.56238 -11.11609 43.90859 
-104.8663 -23.21744 43.02415 
42.01883 56.9454 -20.44701 
-9.82202 84.42757 0.7418832 
-38.41296 22.83784 42.54187 
63.08907 -68.95405 29.38329 
-30.59104 65.72911 -47.95855 
-24.46918 -4.742083 -48.34393 
22.63564 -24.53163 34.54401 
-79.81251 81.73817 -4.148044 
-19.54842 -23.54593 -47.60593 
33.66697 82.80887 32.70118 
35.63183 -36.98434 -49.06659 
-105.5397 25.55322 -0.4434268 
52.8876 -43.3131 -50.15512 
-11.08754 48.60378 -46.0892 
86.9873 75.25454 5.796674 
113.3212 -35.43196 -9.954239 
-1.774547 -9.393242 37.4461 
-78.25116 -61.31558 -6.958755 
27.71265 50.60971 -26.24869 
35.3482 -5.130493 -45.22124 
-60.79511 69.77631 -29.90958 
-96.73018 50.75636 -11.83446 
43.29633 -77.10965 29.89001 
82.60723 -40.78689 -42.33492 
112.2024 -60.95723 26.69008 
-121.2071 -54.50222 34.97881 
83.54841 -35.66908 35.31124 
112.3566 -51.38263 32.07981 
-22.13199 -70.91185 0.7303598 
-108.1546 -54.74631 -6.951256 
-19.52827 91.86501 -14.89551 
11.95762 -35.92289 34.85164 
-31.703 94.02574 4.251757 
-37.42109 -30.08897 40.53448 
-7.192449 -77.60029 -0.7128969 
-80.94389 -44.01008 -35.20236 
77.88893 20.56957 36.26315 
-7.599627 -45.72445 -47.74841 
-3.969867 -49.22212 35.06259 
6.986219 9.251356 -47.13619 
-28.03244 -13.21478 -47.75609 
34.02156 -60.81314 33.41628 
73.6694 -39.915 32.0562 
100.3443 23.94767 37.0892 
-6.482254 -75.59343 -7.34422 
86.74541 55.12114 38.74026 
18.10905 -13.22858 37.69797 
37.89711 -0.1143378 -44.47605 
112.2532 12.31533 -11.66696 
-43.93756 65.37493 18.50348 
8.549725 84.90222 21.87113 
0.1012509 -32.39741 -48.47821 
-33.71092 70.50656 18.88858 
-98.61153 56.98355 0.05136634 
-30.21661 46.24501 33.91783 
-10.38858 33.38799 -48.28774 
30.96407 45.47806 -29.25428 
-2.980875 35.80819 -45.54746 
82.63464 31.48114 -18.49424 
-92.87941 -34.15172 -30.79178 
-32.717 18.46522 38.27203 
74.83064 57.08414 38.82446 
110.999 -42.2285 34.01268 
-62.7299 85.6938 -0.02336466 
-16.70581 47.82858 28.84825 
91.96432 -70.72105 11.55048 
0.4614515 89.4808 -3.067873 
63.56139 36.39725 37.01854 
-3.315998 -56.50293 -42.876 
113.9136 -56.64899 23.03585 
66.31871 4.052218 35.84192 
90.85937 83.65588 11.90996 
47.38332 -62.38221 30.71905 
-110.0688 -54.2616 42.11313 
40.6889 -61.54969 -27.88289 
80.90228 -72.40228 -8.534239 
90.49548 54.65941 38.47941 
93.22615 67.41125 33.76223 
-33.04147 94.97253 -2.444686 
-19.04538 34.07718 38.90878 
-85.49863 47.17704 15.25017 
28.77124 -37.67929 32.73026 
-40.75928 -35.04842 40.68316 
-112.0768 6.630154 -11.00441 
111.3512 50.28996 15.92396 
-13.13234 49.53858 -46.96889 
-60.63312 18.92859 39.05279 
-36.65166 -45.10809 -39.97215 
104.5424 41.46179 36.40805 
58.74749 1.214778 -37.26764 
94.41438 -31.94318 36.18874 
106.5944 -2.238188 26.38027 
-74.7453 -52.20391 44.77794 
49.48794 -93.53436 7.997626 
62.25166 32.25819 36.60997 
-69.09686 -33.5819 -38.5065 
-90.21726 36.45538 27.14499 
-62.09636 20.17088 40.58631 
19.36664 -90.59924 15.89001 
45.86951 -91.55065 10.70349 
110.0077 -10.73647 -22.5615 
-17.37538 33.05785 38.30585 
-24.58062 46.07841 28.33136 
-102.8861 31.31468 5.003985 
107.606 -4.768779 3.431676 
-62.86323 56.47379 27.56832 
105.0123 4.25474 32.18716 
-129.3517 -41.33621 -16.08819 
-126.5044 -40.14601 12.43035 
-25.00048 -61.35294 21.16735 
-41.28571 42.21654 -43.38319 
47.46305 -40.66265 31.59652 
-21.96023 92.91316 -10.9119 
-78.91841 62.42284 28.33014 
10.40139 -29.89405 35.46285 
-30.66738 -64.74432 -17.33484 
27.05987 5.704228 36.31672 
52.18387 -66.52207 -21.82914 
-80.38882 -21.87925 45.75749 
47.51625 41.05327 36.12885 
85.70843 -71.28517 17.66297 
93.32298 4.797045 -35.48944 
68.04362 59.59388 -10.70057 
54.46642 22.73962 36.21605 
3.134496 66.22617 -36.93745 
116.7506 -42.13474 29.39813 
-13.3145 37.53503 -48.25187 
-14.08126 71.71072 19.33065 
-12.45692 -69.37199 -15.12504 
-88.42769 33.44926 -26.88909 
-43.30361 67.21073 18.04249 
-97.63225 -77.36127 30.21275 
50.22591 -44.96932 30.46768 
11.71681 57.60729 -35.19777 
88.18308 -57.48512 -35.06256 
-6.362264 17.31433 38.17878 
-44.29822 -62.17368 -6.219784 
-68.55729 78.94818 -15.06208 
48.60858 -85.83122 -14.84988 
-96.04094 -15.31178 -29.36655 
13.51468 -71.69577 -27.54978 
41.28665 -6.610271 -45.77342 
-57.01725 45.27449 39.4868 
-27.14624 93.73681 -7.160812 
-5.051961 31.61975 36.61162 
26.99331 3.731032 36.31876 
-27.10516 92.19478 7.234767 
113.3053 -20.94651 33.27317 
-77.09204 -66.3737 18.94403 
-87.32481 -42.53753 47.7315 
-85.12734 14.83613 30.51864 
-55.52768 51.1909 -39.65272 
-95.6821 64.03654 -2.779097 
90.24743 -12.25727 35.98107 
-115.5417 -23.36453 41.78532 
19.34918 95.08463 9.906331 
19.35295 78.31851 -16.47887 
84.79528 11.95517 36.53846 
50.71625 9.81897 -36.84093 
8.267897 -81.48139 -2.605742 
-32.38944 -66.3738 -6.883353 
109.2103 33.82319 2.13187 
-57.23479 -27.54637 -40.65791 
110.2303 -29.04392 -25.27553 
-52.09653 -31.40837 41.14771 
90.04104 -51.44664 -34.6204 
-64.60415 79.13155 3.997727 
-71.59721 -63.82668 41.37312 
-65.56709 -51.91999 -22.82826 
0.007405624 -18.38744 -48.72109 
56.37935 71.0301 -7.968769 
90.51803 -2.501971 -34.68242 
-95.92356 26.3397 -24.59694 
-86.8484 -26.39497 -32.01957 
68.58081 67.64742 -7.114884 
53.5214 88.84676 0.7223032 
71.17985 -8.391583 -39.14777 
87.31572 69.44393 3.982199 
-27.68943 -54.04417 27.45634 
61.61224 -73.82317 29.29324 
83.66422 19.5082 -35.07633 
56.08778 -39.47426 -50.42514 
60.38233 31.83876 36.70647 
-8.929449 58.19728 -44.8085 
-46.70469 90.66149 0.1396262 
-37.7468 91.47202 -6.468679 
92.33938 -67.19147 34.7717 
42.43299 -96.49577 0.7939454 
49.92105 57.49867 38.29004 
56.31539 76.02375 -6.062959 
110.3166 36.95185 5.515548 
-14.79405 15.05483 -50.37424 
-38.70763 60.23815 21.02751 
-87.76027 -26.74088 42.52973 
-125.2285 -49.60866 0.7708257 
-71.93715 49.74947 -32.38784 
-97.5254 -71.30791 14.93163 
-114.6199 -31.77702 43.55953 
40.06948 0.3587934 34.50747 
107.5158 -3.913795 7.615156 
-1.171124 -70.65195 -22.74701 
17.63497 -68.98197 28.3633 
80.67796 37.71593 -13.75577 
33.45995 87.39353 29.27163 
-93.495 -77.7598 33.58207 
104.1869 -27.4017 37.29495 
69.19658 -22.27986 -47.40697 
111.0145 46.36905 26.34785 
-113.8746 -29.40009 -25.5228 
21.82969 -86.94408 -0.7307662 
-81.61613 46.51759 -28.99512 
110.0147 42.05154 33.31667 
-86.93907 -4.10153 -32.0925 
-100.7123 39.50135 -0.4233726 
-43.5525 37.96752 42.33102 
80.96881 -72.70759 23.48887 
87.80144 -26.00797 35.9011 
-28.28431 13.51774 37.70574 
-80.30499 82.58517 -9.798604 
59.87592 -49.68324 29.56626 
47.59835 20.77906 36.69847 
-81.17999 -18.14699 -33.16953 
107.3048 40.28936 4.039489 
27.08703 -53.15226 29.73236 
-26.51646 61.24146 21.2183 
-21.73658 56.86679 23.11885 
82.75314 -58.67014 32.47486 
53.08629 -0.6707559 36.0034 
-57.29772 75.6685 9.293196 
86.05482 23.75038 36.30497 
72.618 42.00038 37.16615 
103.3768 -38.9109 37.27267 
7.46256 97.38512 -2.792183 
75.08314 -33.88262 -47.7575 
-87.84523 -75.69005 37.21718 
-78.94313 66.69678 11.19077 
59.2493 -8.534291 -44.27052 
6.47154 41.09558 -41.97619 
27.91779 -64.5909 -32.54522 
-6.109231 -1.856239 -49.81104 
-28.2338 41.73648 -47.37889 
-20.53975 -41.0306 39.32015 
88.83688 -76.45197 31.72871 
59.02625 86.45007 1.193303 
15.22004 17.62927 -45.44601 
67.43441 -30.99973 -48.77097 
-19.16117 8.543304 -49.72123 
23.87484 41.31767 39.08857 
21.61722 62.48549 -22.16939 
-15.26361 81.87201 12.94725 
6.742514 79.99233 24.42413 
-46.89779 -33.79445 -43.40257 
-48.5076 68.15495 16.40546 
-99.87337 -50.72065 46.95537 
-69.33693 -25.54669 47.46585 
108.9695 -7.660152 -8.561731 
5.931211 -23.10834 38.14689 
37.38824 67.75464 36.40169 
-74.77144 -29.55932 44.69353 
-109.069 -2.844101 37.14581 
41.57096 45.60869 -28.11251 
111.3191 -56.29379 13.89393 
-30.3629 67.91366 -45.84093 
110.8964 56.30599 14.8853 
-116.9888 -62.65339 28.61115 
-5.725672 -31.76064 36.82447 
-125.9419 -48.29499 -0.4778917 
66.67941 77.96665 37.86519 
93.71471 27.55413 -34.55206 
53.71359 -90.03925 -1.552828 
-43.19191 -61.61617 -2.085003 
-88.34903 78.44428 -11.15717 
0.4445627 -10.04156 37.41156 
54.36191 -86.21664 23.80778 
24.62336 -67.76565 28.57127 
104.9324 -58.20599 -2.055728 
-51.41438 -52.16738 34.41993 
-106.539 19.99964 8.68906 
77.54354 -70.4866 29.45182 
102.4223 -40.55894 37.26479 
37.57442 -70.69265 -27.93645 
2.681591 -47.27581 34.96977 
105.6169 -24.56168 -31.99024 
46.89775 71.09358 -11.34888 
96.11819 40.09433 -2.659382 
-43.1487 -57.73903 -23.64192 
1.672315 89.79358 -1.267068 
-50.47573 54.74382 -42.23179 
17.94825 59.62391 37.07444 
-45.96542 51.93449 23.05486 
108.9794 -61.38872 13.88853 
50.93901 -5.164317 -43.91146 
21.11644 76.64423 -15.63743 
-36.08997 85.82295 -17.1526 
-40.75032 36.69718 43.20165 
28.2882 -79.81915 -13.88008 
110.8233 19.39365 21.0526 
2.077127 -64.52312 -37.54219 
5.468397 32.24686 -44.08843 
-20.14655 -23.46123 37.75092 
41.39793 -82.98439 -21.17686 
102.7531 53.88789 7.00913 
-95.1059 39.78291 -26.57323 
-45.86054 66.64769 17.63364 
-107.8049 -29.17184 -25.62564 
-25.37999 59.51263 21.86576 
-27.06661 63.5796 -50.11885 
107.3259 10.44849 7.877509 
51.8613 -68.61246 -21.99393 
-92.38326 71.89664 -0.4413738 
107.1066 -64.77571 13.70744 
-115.9645 -62.40786 19.88148 
104.279 41.81956 2.437682 
-94.88092 42.89527 13.20872 
27.92027 66.70406 -15.67574 
-80.98796 -62.11025 -9.317588 
22.86246 41.12645 -35.06496 
-16.5412 -4.036431 -49.43224 
57.32139 -88.09681 8.396013 
94.06434 -55.5564 -19.65708 
-26.8857 -49.4611 36.43916 
57.20642 6.086576 -35.30085 
7.283526 56.50638 34.16995 
-57.08184 -20.09668 -41.31517 
25.13523 -55.63864 -41.11232 
49.0775 -47.10119 30.38579 
28.95132 -54.7367 -42.52001 
-70.04263 66.59842 8.506262 
-79.27232 51.86126 36.82435 
-91.0335 67.39574 9.739409 
-87.64651 -66.88229 1.1687 
83.75234 -49.34052 32.14303 
105.3204 -54.60796 -5.447551 
63.13646 77.16737 38.36432 
15.90395 41.78378 -37.70878 
36.10678 69.69183 -14.95474 
50.7289 -11.22478 -46.8023 
-119.5749 -13.87216 -4.878109 
56.99198 94.70436 12.63172 
111.8232 58.42226 18.90815 
73.85033 -46.53529 30.0085 
74.96643 -76.77635 26.5572 
-80.27187 9.874315 36.39249 
44.34739 -83.12944 19.63851 
87.53941 30.26839 36.672 
-81.06981 -59.94144 45.15428 
58.75801 86.27912 27.61833 
39.09131 -39.95538 -49.1604 
-17.63056 92.59812 -14.14642 
113.5348 -24.42545 21.73247 
-85.60486 -12.91348 -32.06155 
70.51613 29.30978 36.54694 
29.56589 74.12112 -13.81 
105.2394 3.068232 29.82128 
-20.61079 -4.537666 37.08694 
-12.85978 -15.45553 36.59811 
75.66216 -69.7076 29.35442 
115.539 -41.07856 30.81188 
-90.37391 13.06 -28.60518 
111.8548 10.69836 -7.944725 
109.4266 -39.9374 -16.17349 
-40.98741 -33.69328 -46.12415 
115.4392 -43.01268 6.895039 
109.2124 11.17101 -0.08921182 
88.27879 24.36941 36.44641 
-101.8582 -27.48007 -28.80287 
-102.7458 31.4053 9.392139 
44.56607 -0.8749092 -43.95842 
-64.14925 -52.65549 1.945331 
94.08247 30.72781 -33.75556 
73.98132 83.98174 28.39854 
52.53381 64.99084 39.67506 
78.47548 75.29198 1.600959 
97.38675 13.67035 36.34593 
54.37681 6.391534 -37.19034 
61.64585 -86.13249 18.56035 
-51.50285 12.40988 -39.42482 
-103.1369 -63.74601 -2.207661 
1.284412 59.26091 -39.45439 
94.07248 -17.15649 -37.85246 
86.26897 -70.22063 0.9579644 
-98.34289 2.812831 34.21323 
48.64131 -85.69859 16.55691 
-88.18321 76.86299 -5.263531 
89.08352 -24.35144 36.26298 
-62.65432 -51.99356 -31.92908 
-19.10032 -61.14365 -38.59969 
-55.8791 48.72918 38.85784 
25.05745 83.43942 -13.97781 
-44.52905 7.217568 39.15476 
9.128086 -83.40543 20.96998 
-125.3025 -45.53069 15.3216 
-114.123 -49.19492 -19.93537 
-117.3072 -53.38872 -10.62379 
-81.26588 82.1356 -5.36783 
-14.57659 -75.94856 11.57333 
-94.4031 41.99407 -26.78791 
-44.67199 14.8453 -41.84863 
59.1586 -84.48693 9.162193 
83.99992 72.51209 3.131443 
-10.65726 -15.58776 36.89101 
106.7325 63.53123 28.06847 
29.79232 85.73158 30.79419 
68.24463 59.77541 38.33991 
14.1033 -46.40628 -45.18402 
110.712 20.00139 9.069056 
-107.7695 18.57387 -18.32194 
82.68976 -32.21122 35.19274 
61.13438 27.53134 -30.92071 
66.66746 74.21534 -4.571175 
24.796 52.44577 -26.57291 
-93.72043 1.770286 36.04524 
-18.59784 49.49882 -50.23416 
-47.49805 16.98967 -41.41764 
-70.25642 -58.87099 43.58087 
-9.340535 -55.44167 -45.82507 
51.60221 -34.40517 36.4506 
49.24096 52.62564 -19.77659 
93.04231 -62.95282 -14.36445 
-112.997 -51.45619 -14.69875 
-10.81102 -77.04986 13.02029 
-4.922526 -80.79348 16.13021 
80.09759 -74.27307 24.61023 
-33.8896 89.7678 6.180355 
-124.7857 -28.81903 -12.33748 
93.2561 16.26215 -35.19488 
-71.92068 13.56026 32.47099 
-31.61035 96.97168 2.013597 
-90.62305 -76.29776 39.91476 
78.99951 -59.27529 31.50028 
-6.061316 -57.13738 32.23063 
42.39816 68.93238 36.68481 
-25.70197 28.84345 41.13573 
31.90016 11.27993 36.72169 
-119.2347 -59.00115 16.00018 
27.90307 -12.27875 -47.37121 
35.63158 -81.29897 27.18937 
-117.6769 -7.36711 -5.319073 
102.2888 18.35939 -30.38008 
-44.50229 -50.35957 30.78803 
-89.18923 -73.95757 25.09851 
-65.50926 62.25457 -34.64784 
56.38101 22.23142 36.14132 
-31.79489 17.71711 -48.41662 
56.51702 42.73929 36.93174 
113.2234 -20.60607 30.29236 
-65.46334 28.47642 44.16449 
43.69011 71.93607 -12.39728 
-81.55148 -15.60444 -32.6539 
47.69452 14.93959 -35.02679 
111.3466 22.65603 10.09966 
111.4916 -20.07966 -10.35053 
-82.31863 78.31384 -15.33692 
-117.9426 -17.94644 39.42097 
105.5409 -46.30058 36.23114 
-15.04279 19.19414 37.3961 
20.37603 -77.11751 25.6892 
46.41096 -41.98697 -49.88372 
58.89278 94.24333 12.48856 
-2.918376 -0.2901389 -49.41596 
7.43414 63.59897 -36.27909 
109.6572 -22.88529 -24.34441 
34.24045 91.2095 -4.383724 
16.91766 -71.97866 26.70139 
80.25795 59.24978 -3.45164 
-96.15179 55.67599 -5.09797 
9.271892 91.49188 10.65512 
-105.3498 -9.245475 38.7024 
-61.66228 18.02988 37.61731 
-3.806485 -69.2059 -26.53633 
40.08962 49.68243 -24.95618 
-59.89921 18.31734 -36.98258 
-103.4481 29.09801 14.35931 
-85.14983 59.16695 -30.36834 
96.07025 -62.89854 37.0145 
33.0066 -60.97559 -33.50556 
-67.30769 -32.56346 -39.26487 
85.01216 -65.92004 33.19642 
97.06487 2.699312 -35.33897 
-83.23833 -70.42593 43.29142 
19.93827 -27.85127 -48.56815 
-96.30409 47.65623 10.94903 
36.16307 -93.2608 10.8587 
6.435049 49.44096 -38.90289 
109.464 -12.40932 -8.801304 
-37.87295 5.13132 39.33825 
-36.75834 -56.88126 -29.31307 
-75.66957 63.05845 19.38558 
105.6349 -65.42196 9.412957 
-65.9014 -60.57921 19.08814 
-104.4686 -6.966314 -24.59255 
58.08459 2.901138 35.88264 
65.44819 -74.49443 28.80042 
35.98939 91.05676 21.43831 
113.1788 -27.63689 -6.784863 
-90.69579 -67.22159 -2.803907 
22.46844 -42.18636 -47.71108 
-29.58812 17.44156 -49.4234 
-66.96784 -57.17081 5.043988 
23.29558 82.51296 30.70479 
85.39175 -51.32965 -38.84884 
-97.87001 0.6224049 35.15413 
107.3185 -1.372552 -25.66917 
73.04763 -49.81977 30.04701 
108.7859 -25.8222 -27.79341 
24.14145 24.83833 37.72129 
-72.09583 -22.99482 47.10058 
110.4011 -15.97629 -0.5867195 
-2.54676 28.64244 -46.21428 
94.95704 -77.1825 24.26246 
-31.67247 -62.40545 -23.73947 
-25.66996 -41.06014 -46.74589 
-13.89577 73.12959 18.05469 
52.83169 39.9996 -26.4519 
-45.03202 50.72226 31.35464 
-59.26015 16.21827 -37.29605 
108.7357 28.23095 33.09923 
-27.48692 -32.06426 39.48124 
44.37589 35.59977 -31.60369 
70.95415 -57.46032 30.76814 
19.37962 -83.78092 -5.73212 
79.74739 -51.55421 -41.9696 
-93.15138 31.20975 -25.89651 
93.12712 37.27195 37.27263 
-25.52333 -58.41947 21.84287 
28.8836 28.62856 37.48013 
-98.28931 -22.32669 43.56051 
-68.28506 42.74649 -32.49943 
55.47464 -42.71873 -50.41196 
-2.046307 49.77639 31.14183 
-124.7581 -42.30912 22.34324 
87.87733 -50.73444 34.61237 
104.0533 -69.44704 10.65044 
52.48331 17.13542 36.24045 
90.05386 21.87062 -34.88189 
68.76073 -64.65602 30.58366 
-113.7119 0.6478583 1.514568 
58.41854 -50.94593 29.41034 
83.82861 -41.98679 -41.49989 
59.94662 9.640969 -33.30158 
107.5757 -71.93175 25.9837 
105.0847 74.49522 18.33336 
-111.3378 9.097867 -2.500284 
-32.41196 92.64891 -7.011763 
20.91267 19.03746 37.27825 
-78.22037 31.95869 -29.92807 
-124.7077 -47.634 13.76834 
-31.54704 13.59035 -48.18005 
-88.77975 10.30444 -29.87481 
23.97347 55.18958 38.78487 
-92.79868 24.79829 -25.6856 
-32.64963 -64.05738 0.9267984 
-84.74866 1.328884 -32.55043 
-82.8777 62.86563 -30.83173 
62.36081 43.95886 37.37412 
19.32073 36.46078 37.68394 
-33.30058 -50.62284 36.49589 
14.13947 98.28191 1.312226 
30.48738 -55.62163 30.53253 
-7.418548 -61.0363 23.9533 
111.8125 -14.00721 32.35619 
-33.79044 79.93004 13.9848 
-48.88066 -51.05553 35.28562 
96.27052 16.14264 36.71035 
-22.53111 18.9175 -50.18518 
91.57867 33.53513 -31.25597 
12.444 -82.33363 21.3212 
36.44846 -45.33853 -48.87719 
106.2683 -65.75775 12.1873 
-24.6735 -21.7676 38.8244 
-37.71869 -55.36036 -30.8591 
107.0517 -69.39253 20.42968 
-60.49237 -52.01259 -13.87102 
-3.807889 -5.472772 -49.83052 
3.699588 -8.546562 -49.29727 
-15.6528 -21.69651 -48.03138 
37.23654 5.858018 -43.15878 
-46.37619 -52.89493 -23.61428 
-52.79341 5.665683 -38.95646 
-5.992692 -80.10253 17.71811 
-49.42494 32.48513 43.46177 
-32.59209 29.72335 43.44795 
-57.44226 -57.2285 36.49399 
-33.67187 37.86465 42.6511 
-105.4889 21.70275 18.57952 
-44.16822 -12.44889 -45.70205 
-53.41305 44.29534 -40.23881 
1.325691 -32.09702 36.30618 
-62.56006 26.06897 -36.15514 
17.76735 95.2001 -10.22418 
95.22852 52.49543 1.703926 
-114.2432 -51.5171 41.45896 
-44.46488 87.80135 -10.13109 
22.87267 -68.78914 28.50614 
-57.65617 47.32599 39.19782 
-112.5929 -31.18461 43.88829 
6.916524 -13.0633 38.47042 
-81.66916 -72.57652 38.28334 
34.11268 -2.889186 35.57615 
32.99465 67.12392 -15.45036 
80.54752 -8.103425 -34.72663 
113.1362 -20.11179 27.93784 
106.9485 -72.85253 30.54416 
63.98997 -18.33491 -48.13743 
-91.53127 70.55684 -12.91539 
29.80197 30.43636 37.30675 
-126.2935 -49.42707 -5.476317 
22.25114 -24.96992 -48.63644 
0.4264246 -64.04206 -38.33876 
-108.9695 15.68322 -13.52963 
-42.50788 -62.75647 -7.41555 
7.05978 -84.36299 18.06421 
24.03281 -1.556179 -46.49075 
-6.735826 53.91705 -44.05904 
78.439 -78.16916 -0.0225123 
34.91835 -56.36731 -38.12929 
-92.99301 57.52456 8.945189 
-49.33971 -33.70451 41.30862 
-114.7734 -54.30509 40.54517 
-118.3203 -12.99221 21.50384 
-47.3538 38.17761 41.67355 
-17.33278 19.84833 -50.52782 
-33.64468 -16.64593 39.32272 
66.05098 39.89777 37.25053 
38.04998 75.38696 35.8112 
67.3483 80.50738 34.19497 
-123.9901 -35.85615 33.30923 
-24.94401 -39.89418 39.53189 
78.30428 4.624511 -32.95109 
103.7384 16.47998 -20.65425 
111.0136 35.13865 22.68654 
94.31427 -50.10361 -29.06591 
109.1516 63.66831 25.80742 
-11.82339 -39.32135 -47.52624 
72.06793 -44.3736 30.24049 
107.673 -17.36346 36.4443 
-52.41393 68.27612 14.646 
-35.91418 14.5952 -46.09272 
108.6461 -23.966 -28.01963 
100.01 -11.70118 36.44249 
-5.388812 -2.14423 37.4449 
-16.19817 -75.72785 10.53403 
-91.17172 42.2048 14.93066 
114.5355 -53.71365 29.90807 
4.290082 66.88725 27.70411 
16.93712 0.02470201 -47.25182 
20.80177 -41.29446 32.73793 
-52.1796 -29.40907 41.02876 
-100.53 -46.09959 -28.78581 
-99.48712 45.70347 2.706227 
-99.62846 -38.30149 46.75417 
47.27832 89.95689 23.42574 
-2.215509 -54.64758 -43.32433 
65.73749 23.51702 36.07609 
-67.63126 13.86684 -34.112 
-102.6246 -25.4158 -28.47382 
-33.72068 -58.08586 14.82355 
-128.0036 -37.52935 -3.180659 
-80.36296 -19.70592 45.55842 
107.5817 -3.657012 -26.38338 
-52.97296 -52.11191 -25.89489 
-74.79816 20.75796 31.08769 
77.08905 69.81025 39.91613 
-91.69397 -16.39951 -31.60165 
-31.98334 -18.90309 39.49088 
39.45495 -21.78845 35.47867 
-115.39 -29.94643 42.95937 
28.68442 23.65051 -39.65394 
84.82492 76.25297 5.097556 
44.49527 10.03566 -39.50454 
-20.41421 -62.8251 -29.1656 
0.4936635 -20.51765 -48.63251 
17.52055 7.878364 38.00977 
-64.2934 32.07359 -35.63693 
20.35844 -62.24701 -36.77149 
102.2997 49.1669 37.75819 
-42.94556 -7.286633 -45.80795 
106.9151 -5.257338 34.36739 
96.23477 29.90558 -25.35692 
2.484087 -52.41778 34.23774 
69.91544 -13.25262 36.12676 
51.63837 90.99447 2.633469 
20.44002 17.0597 -43.91175 
-98.08356 47.99313 -10.10043 
47.01681 -57.6189 -30.2382 
-93.0993 -28.44276 44.97165 
-51.31432 -58.12045 -14.50045 
87.76967 -68.87819 -21.65367 
100.9509 -52.5877 37.05523 
-39.92619 48.48156 30.38914 
-3.023492 -13.71187 37.34882 
-107.6958 2.873473 -21.47225 
-57.12225 -54.00869 -2.020744 
24.54167 65.24374 36.93417 
-122.0238 -21.40364 -11.81521 
83.06857 -70.79381 13.92569 
-19.37006 -66.79132 -19.20512 
2.231815 75.38773 22.10859 
60.85958 49.39396 37.55961 
-98.18347 -51.72287 47.3011 
90.2958 -14.1627 36.13725 
-69.73729 77.08004 -17.66432 
-112.1995 -62.17573 39.07297 
51.20957 -75.28269 -22.02486 
-19.40438 -69.07375 -9.088964 
-17.21723 6.963711 -49.83601 
-97.12467 31.61362 21.44161 
-27.74319 72.54187 -42.14854 
55.68821 -50.39212 29.51845 
-44.19509 80.84986 9.249871 
39.10262 8.408182 -41.81486 
-57.64395 -49.10666 -22.18356 
-124.6035 -52.19112 -9.554921 
-22.50357 87.38338 11.06772 
-21.43621 56.30005 -50.99382 
-60.81508 22.59719 44.19777 
-55.01102 -56.25966 23.38696 
-27.35808 -42.51635 -46.4395 
22.61671 96.98776 6.005912 
-46.99884 -45.91747 -37.7385 
-112.301 -31.89315 -26.44845 
32.08385 -57.3891 -36.14301 
-82.67767 56.95027 21.36684 
2.036113 -81.7536 17.61666 
6.164383 -48.87536 -45.7702 
-96.2774 57.9431 -4.454679 
-106.9915 18.43676 19.68118 
31.10161 -47.58123 30.72978 
-55.9009 25.31038 43.87307 
-22.08046 -1.34967 36.9045 
71.3147 -34.85487 33.88838 
-3.127311 91.95854 -18.7376 
111.459 -34.19894 -18.10609 
-99.86162 41.27954 -17.66727 
-66.70807 42.18412 39.5442 
108.5043 66.41388 15.34076 
-112.3764 -53.94025 41.43692 
4.956275 14.9433 -47.54726 
-106.1665 -66.59208 7.663156 
-10.22126 -78.38337 19.56764 
-67.0452 -47.78962 -37.45158 
38.60406 -85.2487 18.56125 
47.5847 94.22375 5.862908 
1.053461 89.52769 -22.53522 
37.00825 -12.67235 -47.36169 
65.78042 21.35664 35.97456 
-126.7734 -36.33658 9.81522 
-43.89343 -35.16038 41.0484 
94.21376 63.40927 36.37727 
87.99764 3.384109 -34.58978 
59.30517 -52.8687 29.23666 
68.67242 -10.83789 -42.13449 
9.772547 -78.98297 22.09297 
-124.4649 -50.87374 4.638332 
-53.26861 -55.17406 23.91851 
-29.83684 57.31068 22.28209 
-70.28508 -38.18716 44.82193 
40.04916 -71.47081 32.04139 
54.39019 -55.74858 -46.38723 
-73.49559 -60.29954 -14.9044 
-66.96095 71.93691 7.632768 
31.96454 45.22625 38.38029 
3.934971 86.6581 10.8186 
-78.0946 -46.0113 44.98947 
23.2104 -19.39324 34.8795 
-74.89935 -3.592365 42.46184 
-15.80351 -51.35309 35.59251 
71.35893 -29.18821 35.17081 
-94.48174 -77.33173 39.17197 
115.8606 -33.75058 8.007627 
-48.75004 30.73625 43.8828 
-28.40888 -28.80335 -47.04416 
-124.3489 -46.92403 21.71346 
-121.6226 -19.99563 1.708112 
111.6748 28.53448 11.75967 
15.93948 98.72249 0.6951146 
-15.41844 -62.19106 -39.07224 
-58.27145 -53.92328 -6.237785 
110.6174 -6.294407 -20.08921 
93.4096 46.37637 38.14179 
-81.91367 55.68726 33.09025 
-96.25128 -75.27589 20.93496 
-70.04885 84.2126 -6.626918 
-14.44502 -25.60904 -47.78798 
-87.85184 44.97895 22.4424 
-80.65063 46.02562 38.15122 
-57.87911 -10.08649 44.57283 
-17.25526 3.22552 -49.4744 
-24.10776 73.16088 -42.69547 
-58.81912 -56.19168 14.73147 
-114.0337 -9.683168 38.52499 
93.86151 -28.20759 36.59751 
-31.15169 -53.29461 30.24302 
-83.19863 -39.14207 -34.95988 
-90.83232 -27.99509 -30.84863 
63.04892 -15.52947 35.75898 
-47.3182 88.19328 4.286989 
-81.78621 -61.79772 45.18819 
16.00258 -36.04377 33.87304 
71.77654 -32.90245 34.77769 
-54.72143 79.61816 8.261487 
47.19345 -10.71629 35.98444 
-125.237 -30.16522 -10.1229 
-11.7553 -35.88181 -47.53624 
-12.99953 -44.84827 -47.26843 
0.538062 46.69041 34.95906 
-37.13556 42.15783 41.41053 
-102.7133 30.88562 14.30051 
79.40869 -21.68813 35.36612 
-29.3722 19.66296 -49.68374 
-36.8427 3.657132 -45.16252 
-73.97593 -10.2557 -34.62773 
107.4395 -28.39466 -30.60374 
-5.151261 -35.50557 37.00764 
-100.1127 -18.8526 42.49329 
24.16692 29.65053 37.59399 
114.1271 -28.66841 4.817672 
111.4313 -19.84865 -15.99072 
-89.72239 -17.63971 -32.19378 
31.45023 92.84686 16.63395 
-29.19991 -50.0207 36.39036 
24.51409 -25.61161 -48.72597 
82.11206 -38.90612 31.58624 
-63.20214 -0.173192 42.92426 
112.1969 7.214106 -17.14286 
63.35762 25.9702 -31.63869 
98.70597 42.56932 -0.07545024 
-91.37334 -68.32993 6.187221 
-39.44622 13.38501 -43.21284 
-81.41013 19.70473 -30.68971 
112.086 -22.79915 -7.232206 
-24.58084 87.86692 -19.10116 
-10.24391 42.33551 32.0942 
-110.2006 3.490909 31.70815 
-9.713514 61.86797 -44.27859 
105.0125 6.75571 33.2701 
109.621 15.10636 21.95809 
58.83054 14.53488 35.91156 
-68.41118 27.481 -33.89154 
35.8106 -30.97497 -49.66074 
-60.09039 67.26077 12.50362 
19.77378 67.36488 -20.89039 
-93.70174 59.04896 -19.86233 
28.96396 -92.92037 5.009773 
100.6688 72.87556 13.00626 
103.5063 18.53239 -26.84613 
-39.2758 79.04892 -26.7611 
-59.05381 -37.41497 42.94828 
71.77608 70.5613 38.66943 
-11.44738 30.7481 36.66675 
117.5136 -45.86466 28.45624 
-70.6479 57.58699 33.76298 
87.50179 -23.29159 35.94792 
103.3527 -77.27853 30.3117 
68.99546 -30.21735 34.92596 
105.2629 -40.95521 37.14173 
-123.3299 -26.05976 -2.585194 
91.38528 -68.77511 -17.37304 
111.7045 13.33261 -8.917628 
0.4652025 28.18742 38.20755 
-6.017477 -35.49966 -47.92328 
109.9653 21.53942 -2.696309 
19.28193 58.41362 37.65226 
73.77533 -27.54653 -48.2439 
-30.03822 -51.15189 -41.51028 
12.64715 70.69873 -26.154 
93.12582 -30.84482 -38.28795 
106.0982 -58.23958 2.974116 
-28.7728 -17.00589 -47.42308 
18.72593 -37.00048 33.7575 
68.33788 1.343076 36.11611 
72.22775 -30.92816 34.912 
-70.50816 -57.87257 -8.540347 
67.05702 67.75943 38.93774 
109.4516 -63.30911 21.48104 
86.38039 -38.33098 -40.71017 
61.17122 -54.87497 -48.83625 
34.37808 62.90824 -17.34502 
73.35091 -38.08711 31.64483 
-75.30874 -68.66008 35.07644 
-68.73383 -2.556883 -35.18955 
-19.52048 36.95575 37.07318 
-92.33929 68.74678 -9.091521 
22.23185 14.86075 -44.09127 
-30.56792 18.91182 38.27997 
-39.53515 -47.66549 39.0561 
61.06686 -81.41252 9.167027 
-63.26479 -56.46908 41.16959 
-113.7233 -64.71942 25.76262 
15.87799 -6.237576 -47.32018 
-94.02047 23.9358 25.10269 
11.09881 45.06635 37.45749 
81.65067 42.62691 37.41474 
108.6788 -21.25115 -26.75433 
28.23812 77.33295 -13.79608 
50.18739 26.88217 36.05112 
78.88731 -78.75381 17.82965 
75.46043 -86.61157 23.50295 
81.35907 24.1536 36.11472 
88.44751 -17.80461 35.65925 
-11.11803 54.72427 26.25494 
-46.78681 78.23882 -25.47453 
-23.73364 61.67474 21.18286 
48.39667 -79.37636 -22.02032 
-96.76018 34.4009 19.5541 
44.51377 -23.409 -49.54156 
36.35294 64.29344 -16.86676 
-78.42325 -19.28498 45.85096 
103.4524 24.13873 -23.51963 
70.84763 -84.45127 11.15781 
-112.4495 -52.06802 41.93316 
-46.57703 33.05877 43.62222 
53.80846 29.67538 36.33778 
8.633735 64.24453 31.08346 
22.33547 -89.14108 3.220294 
-48.02069 -22.33267 42.83969 
-49.68 20.70758 -40.91192 
-28.73166 -5.086744 38.3029 
-34.69444 34.16526 -43.25076 
96.20895 -24.78949 36.77682 
98.78611 -71.61167 10.29501 
-9.957078 -68.5971 -19.67082 
-116.6593 -36.40228 43.54034 
-122.3874 -25.30929 32.9391 
111.0642 24.00201 20.66735 
-115.4455 -62.84844 22.41157 
92.82472 -35.46156 37.02253 
-57.66988 30.61551 43.37279 
-22.66407 60.21687 21.98888 
-19.44812 -56.79414 24.23482 
-59.12299 -49.16108 -25.53489 
68.33436 -29.15317 -48.06515 
33.22233 92.52572 17.42537 
-111.1963 6.177492 -15.20133 
23.44659 -79.63969 -11.51687 
-117.5389 -32.24269 -24.89163 
-69.79375 -25.96666 -37.05989 
73.63912 70.66389 39.28936 
-79.16051 -61.57108 -9.042346 
75.17514 -11.99248 35.78366 
-99.17495 -5.400799 37.14593 
110.0072 -15.32539 -25.26865 
-107.3449 17.57938 -19.95123 
-75.09985 5.098864 -32.43602 
-3.905196 -41.02776 -48.0056 
-45.64109 62.15414 19.13503 
-112.5651 -47.37197 43.11436 
108.9857 -10.58498 17.15141 
112.6025 22.27814 3.877553 
-113.9 1.235862 -1.287964 
111.0144 48.21043 23.29334 
-47.5436 89.0153 -3.90534 
-21.80913 -29.6151 -47.57232 
14.8321 94.49203 -12.62633 
-6.544721 73.52487 14.45905 
68.16949 62.74757 38.69521 
-27.435 -53.81928 31.30095 
104.7226 8.295174 34.36008 
16.38415 50.51122 -35.40032 
111.9814 -23.71894 -16.07906 
68.64455 37.91656 -24.37479 
-61.29761 36.06089 -37.12596 
-69.93668 -31.46714 43.31585 
16.34133 -24.5637 36.23676 
-51.48297 44.59386 -41.16441 
36.60379 48.34956 -26.40517 
-61.97316 48.81242 -35.40898 
96.69139 24.5911 -34.51009 
103.1969 -76.80305 24.86383 
-55.38221 -31.31151 -41.40318 
-18.06731 -75.40452 10.49284 
49.82346 7.635755 36.28688 
-102.5791 31.3684 6.927076 
-106.9437 18.30144 13.17659 
-1.01595 78.26046 -31.57066 
-0.9687021 -81.93857 15.79505 
61.31635 -82.44474 11.85795 
-34.88238 -31.97323 -46.66759 
-107.5901 5.192526 -21.6837 
-6.042097 -49.44551 35.3442 
38.00215 -39.10797 32.90628 
-54.68298 -50.36887 -25.94254 
-97.51761 -70.38032 12.86098 
-12.56626 57.21948 25.41331 
-36.41024 -19.12059 39.96965 
-105.9462 21.72335 -21.61871 
105.5502 -2.333275 -26.56165 
-48.4078 -18.16362 -43.1524 
-18.48822 -22.58414 37.49116 
-123.7904 -30.7226 31.36628 
47.72404 -28.6497 35.77155 
-8.764196 28.72762 -48.07838 
23.69309 -29.72624 -48.66189 
12.96339 13.99138 38.42029 
-13.74102 3.236444 37.37798 
-102.8697 -31.24753 44.88424 
44.50805 -87.74193 16.82737 
-50.94918 83.03746 -14.54965 
-48.93126 -58.5301 -18.12318 
-37.93316 78.11807 -29.11456 
78.72691 18.72232 36.39754 
-67.07047 73.6733 6.58617 
42.75265 13.15053 36.17834 
6.559483 -45.15273 34.91573 
-43.42086 -10.25681 -45.96246 
-121.2959 -29.61919 39.9575 
38.13867 8.131821 36.01056 
-63.16442 2.589972 -35.78881 
-17.61766 -18.58064 -48.15657 
-54.93709 -33.14035 -41.46082 
39.27462 -52.05363 33.5976 
111.4043 56.36998 18.66823 
-7.520705 82.97478 -34.06222 
64.66924 2.676205 -33.82476 
-1.171142 73.02525 19.16066 
81.28836 7.526093 36.11106 
-41.12666 -50.8678 19.88015 
-13.63891 80.38576 11.65821 
-12.18364 43.51713 31.76859 
-83.58973 -14.80962 -32.41428 
84.26461 32.23382 36.98383 
16.6123 -81.40878 21.08754 
31.19451 -33.48719 -49.00386 
85.37791 -74.63707 28.6858 
-46.17916 5.787448 39.33728 
-92.9142 -64.26704 -16.01531 
89.67345 -30.46307 -38.42403 
59.14184 -85.43627 24.18394 
0.2241206 37.84148 37.77116 
-69.10575 -64.09874 26.10567 
41.54732 21.31882 36.64326 
87.17106 31.31549 -14.70386 
107.2016 -72.03249 24.04385 
73.08621 77.19798 37.31777 
44.31728 39.72236 -31.15787 
94.47102 -61.06282 -14.00179 
-66.49895 46.80511 38.52376 
-109.1703 -37.32626 -25.83908 
-62.0518 -2.672323 -36.6849 
-36.4362 -11.07602 -47.35383 
45.61324 82.60091 33.65402 
-2.330127 60.60954 26.83666 
-80.62677 -9.582978 43.34236 
53.26102 -26.20715 36.05236 
-63.95308 7.318116 36.74677 
50.56886 -62.11416 -22.19693 
53.45002 9.983681 -34.92824 
-23.49706 95.97531 6.124366 
4.54772 -15.90567 38.26815 
76.5376 -79.49271 1.074603 
15.15071 98.54897 -7.115437 
62.69293 75.08862 -4.850424 
106.0571 29.608 35.48032 
7.16198 -72.61828 -25.39877 
-53.74497 27.43386 43.77648 
79.41022 -76.29979 24.32817 
29.4249 82.14452 -13.38786 
37.5442 -24.8483 -49.47969 
-15.82189 -40.98477 38.54592 
-76.71393 -15.77487 -33.98176 
-11.79847 80.82948 -36.09124 
-10.63076 -19.63317 36.81844 
111.0561 43.70835 11.15991 
-127.0566 -37.5134 8.371877 
82.0598 -12.36302 35.7429 
-71.37891 8.867794 36.30904 
36.77718 12.50364 -40.65845 
60.92883 -5.710029 35.51769 
66.05781 -69.85758 -4.982503 
7.709606 -83.97331 2.060673 
-117.8889 -11.39833 16.87889 
90.39423 73.63971 7.011282 
-90.90347 -28.61098 44.77322 
-44.45004 31.6534 -42.88722 
60.26663 36.29881 -28.84877 
-85.55859 -70.93068 43.11266 
112.0919 -29.6473 -16.94043 
111.5836 -17.29858 17.93596 
-66.41166 -45.11156 44.95895 
4.162306 -29.26831 36.30829 
112.2969 -16.02469 27.48923 
-22.71363 30.47324 -50.97343 
-13.77164 -77.25203 7.361687 
-74.70499 20.94709 -32.37808 
-14.08819 -68.46227 -15.87299 
-77.14417 -69.49694 34.75611 
63.17629 89.68755 6.362267 
67.37867 -50.9134 29.42725 
37.62593 -46.61358 33.14381 
-102.5428 33.61266 -3.93734 
-124.7346 -42.08209 24.47177 
-126.9138 -44.25808 -18.21306 
93.5152 -76.72656 32.83651 
-73.03539 -3.857081 -34.32825 
-107.1766 -69.17791 21.47307 
12.02917 41.54652 -39.61073 
66.10274 -49.11481 -50.35175 
-71.58241 76.47756 3.426538 
22.28014 46.75331 -33.33583 
61.77304 -71.87486 -2.430718 
-51.1376 73.25661 -30.96524 
35.7866 6.87887 36.05831 
-32.51943 4.803333 -47.69487 
10.00366 -18.04281 -48.7867 
7.803176 49.65284 37.47584 
-119.4516 -53.68293 -10.3583 
-103.3527 -56.9432 -12.42265 
-69.20578 7.413819 -34.14464 
-61.01094 29.23158 -36.79139 
117.4442 -37.73622 23.89198 
69.9867 -63.47043 -24.59618 
-56.23529 -55.99015 35.59959 
-87.85994 -70.86111 43.07207 
-48.88324 0.697176 40.97909 
40.67109 12.94135 36.18035 
-88.39688 -40.76545 47.43384 
107.9078 -6.976033 34.00762 
-118.7608 -18.59838 -20.66429 
108.2547 -28.54222 37.22216 
-11.15947 -24.38649 -47.94475 
60.73132 -14.95644 35.81134 
-18.73068 40.92483 32.20765 
36.25049 23.34184 -37.51688 
-29.98564 96.22719 3.873696 
41.05179 11.20547 -40.11461 
-26.28373 -28.13273 39.14818 
-61.50285 -55.98766 11.44688 
4.203611 -43.25539 35.5145 
-29.87468 51.95104 24.04984 
-52.05153 79.29111 -21.29584 
-69.10496 54.10445 36.76429 
-126.3952 -34.76816 4.664128 
36.52224 -92.43859 12.52238 
-66.98653 30.35987 43.45734 
78.80847 39.26975 37.07214 
-0.4969148 65.2127 -38.96808 
-31.2746 54.04601 -48.03186 
111.7387 -17.93977 15.92299 
-123.3258 -26.17624 -4.83497 
43.27327 -79.05659 29.47674 
-99.50272 -70.8985 14.6383 
45.44734 4.805976 -41.81001 
104.3633 -26.38121 -32.76646 
-16.53189 -58.62981 23.48516 
-91.51311 -54.4295 46.75852 
86.2905 60.89972 39.16536 
-77.4256 -14.81416 45.04486 
-56.29738 -54.39314 10.24913 
-120.807 -54.79358 -5.463337 
-10.42411 4.4983 37.35399 
-15.83061 -69.71082 21.72616 
-108.6188 -58.6226 41.26842 
89.11531 47.50924 38.22395 
-47.93345 -43.52969 41.31331 
-96.49683 49.75896 -20.44334 
-115.6876 -12.90129 -21.23719 
-96.17404 52.46254 -10.27906 
1.453868 -70.16713 23.35336 
-12.46647 -12.79708 -48.59822 
99.52736 -61.18513 37.35217 
-118.1531 -8.616338 -12.95546 
-90.45097 63.03085 -25.29952 
2.124476 -81.42416 1.564345 
-77.91849 70.62731 3.827581 
-55.11856 -53.75108 5.302988 
-85.36861 6.094247 38.33774 
66.72142 -30.43193 34.75122 
-57.50515 -6.884289 -39.01311 
-73.12641 -67.46834 35.22382 
-17.45592 -66.60413 -20.26878 
87.38913 54.3931 -1.070693 
91.53809 -8.589466 -35.21779 
79.17153 43.30643 -11.02161 
60.41179 -33.04615 -50.15363 
-32.55733 -11.80134 39.05553 
-25.21324 47.49427 -50.09157 
67.61086 72.11639 38.89774 
38.69852 -89.2548 17.27481 
-19.26816 45.27047 -50.45831 
-34.13216 -64.30096 7.7743 
2.161356 -80.10733 -2.302851 
-6.481213 78.98534 9.542041 
-17.34359 10.21865 -49.8156 
13.39185 -88.39905 15.50023 
60.67068 45.44984 -21.13401 
-28.04843 83.4705 -25.17061 
101.0637 -45.61178 37.25652 
-77.16982 -36.86738 -37.78106 
-24.25968 25.5012 40.02999 
-29.4712 30.1347 -46.05331 
-6.012531 -51.18129 34.56953 
-123.4109 -52.8111 17.97925 
-84.32489 -39.11781 45.70477 
93.27164 -26.24813 36.64831 
115.174 -31.65045 7.176128 
-17.41499 24.07154 -50.38654 
-75.91093 2.710154 -32.60587 
-8.842154 -44.2697 -47.62259 
-82.06583 -0.4800431 40.65629 
28.18452 0.08427861 -45.88414 
-37.18822 24.92655 44.63206 
-6.8369 -73.71404 22.12541 
103.1783 -11.3663 -28.74851 
-50.15544 56.7932 -42.43716 
43.5153 -83.81405 -20.55386 
19.07038 -46.2309 32.28758 
43.84833 -28.60385 -50.04386 
17.53543 10.09273 -45.4164 
-67.66713 9.370439 35.10223 
8.066972 3.716229 -47.84731 
21.59514 -28.05808 34.66957 
57.19749 -26.36183 -50.42474 
-97.43616 -39.36399 47.00884 
-98.09755 61.14855 2.832009 
-26.29719 92.57329 -9.28297 
36.45103 -56.38672 -36.54221 
49.66995 -3.114488 -43.58019 
45.40858 -54.51628 -47.39266 
41.4039 84.28705 32.57365 
90.46677 -70.12505 9.83358 
-101.2265 -40.72756 -28.84805 
-36.52468 -13.06944 -47.40429 
-116.8789 -61.62973 22.5758 
-20.49734 54.1988 -50.53126 
111.834 34.4527 11.90627 
-5.335864 34.75377 -46.26258 
47.29564 83.33688 32.73279 
-105.6493 24.95993 -16.72988 
79.25418 51.91858 38.45434 
18.82102 -77.70155 -18.71712 
49.68457 85.79942 29.05362 
40.8742 -95.59964 -0.1483759 
95.33119 -44.70568 37.49108 
-77.56414 43.52652 39.11245 
94.8244 -61.17079 37.28695 
32.55208 90.40238 22.60089 
29.98122 -71.35723 29.91104 
78.02963 23.69016 36.10092 
-56.08382 -54.05704 39.98505 
56.91806 23.74762 -31.44252 
49.90001 -35.38831 36.47898 
-41.54387 93.11898 0.7123339 
-43.23629 -30.77748 -45.48254 
-106.4041 -45.33772 -26.40339 
62.33757 -44.68555 30.16037 
111.4265 43.33955 14.19575 
104.3283 -0.7374392 -26.12959 
109.8513 -13.50595 -26.11004 
-58.49307 16.46672 37.17145 
-84.35814 16.79574 -29.9691 
-122.5048 -31.12589 38.11615 
-3.86499 82.28728 -31.33722 
53.59923 -86.44196 26.86649 
-0.5381982 -38.23312 36.29872 
-1.535235 -79.68595 -0.5601113 
-111.927 5.364032 20.11006 
36.83015 3.967739 -43.49926 
-5.505466 52.32949 -43.51651 
-65.3922 -9.86385 -36.97147 
-93.62166 -39.48452 -31.46592 
107.078 -26.012 -31.04744 
-104.1458 -28.99775 -27.1856 
51.43692 32.61731 36.33787 
-54.34293 -2.855965 42.90813 
71.54469 -39.21606 31.88103 
75.45365 71.32584 39.58357 
109.4288 49.71844 34.1964 
25.34771 92.9792 15.14753 
3.486102 55.88816 31.78326 
-31.25241 6.651741 -48.48627 
82.51271 33.68017 -24.59331 
86.0007 52.43185 -3.016035 
-35.11704 10.98998 -46.33128 
-76.33871 8.593023 -32.24806 
9.666366 67.52845 30.47749 
-78.38548 49.35808 37.43672 
-12.39262 75.19604 13.22253 
-54.86079 79.72766 -17.06814 
-69.3322 -33.70842 43.5882 
26.27667 -13.6827 -47.82395 
-96.9579 65.13612 2.286265 
30.73083 -37.44853 33.16329 
-104.387 16.33603 28.20408 
-21.48972 94.44775 6.784589 
-61.37083 86.33316 1.277713 
-8.512165 -39.31463 37.55195 
-44.869 -50.64037 -27.33986 
-33.21357 -18.02558 -47.17616 
-22.02559 -28.54239 39.11836 
86.4122 -38.88092 34.04278 
-85.90178 53.45407 27.26827 
19.71157 97.69038 -4.713942 
66.61438 -54.96525 -43.34325 
-39.67436 -0.1398973 40.31789 
89.60045 -26.5238 -38.48293 
64.76673 -37.33923 -49.86532 
24.36848 67.45618 36.44496 
-30.50863 -50.04314 -43.06905 
17.15622 -36.11414 -48.08422 
-15.41791 60.90376 -47.28235 
-6.718134 -18.2503 36.88837 
-105.7405 -70.18246 22.59265 
-65.284 60.40887 -34.93787 
32.67078 -18.1407 -48.78184 
111.0149 56.89314 22.43391 
-17.14516 22.10916 -50.54647 
6.342896 -79.72826 -8.576023 
117.9271 -41.65771 19.24889 
-58.39618 -53.49731 -8.065817 
-101.786 -57.26516 -13.41759 
90.88164 -46.60226 -34.64634 
74.07519 -68.63471 30.40669 
45.53147 -85.17817 27.53341 
-122.0383 -23.62896 29.59179 
91.20036 -70.7485 4.944111 
-30.30783 -65.66401 12.82086 
69.33584 -58.42339 30.4194 
15.88867 23.70343 -43.67769 
-103.1394 -4.66951 36.71405 
-105.9546 -15.13689 41.14133 
-17.69935 36.50688 35.8135 
15.04691 87.60811 -16.58532 
25.79137 41.8839 39.37032 
73.35518 81.42245 3.349123 
-30.15302 -67.14478 -5.494714 
108.396 56.31928 32.94921 
-58.92783 58.62583 -37.84618 
103.073 -69.42553 33.75356 
-29.72529 25.22612 42.04019 
82.5361 28.35107 -35.26162 
15.15194 88.22694 21.78104 
70.78678 -8.489431 35.75164 
-40.06221 17.36831 38.51255 
-21.07719 -15.78979 -48.07392 
109.4366 -10.11341 20.3292 
-87.52238 43.78728 20.43055 
-54.39978 -24.25772 44.02113 
-16.92745 -51.14727 -46.31749 
95.37222 26.49961 -34.45258 
110.8904 -17.71635 -18.66375 
15.14893 -77.78333 -19.44769 
-15.41107 -37.88226 38.93293 
19.0484 95.8887 -8.45227 
83.55099 -71.21539 -5.538565 
-30.35461 -0.1084479 -48.42319 
27.57823 -28.35029 33.89839 
-123.1926 -25.46566 10.00543 
-49.97207 8.858883 -39.57928 
36.22854 -52.03943 -48.13626 
38.61101 -61.76419 -28.75358 
28.05709 20.4941 38.04442 
44.30271 73.85879 -11.31142 
28.35236 32.62632 37.32967 
-70.01691 -29.91799 44.5052 
90.50289 85.63802 18.42344 
-86.74873 50.63517 -28.57718 
-100.005 35.08208 15.30383 
-120.1737 -19.19899 35.59531 
9.144196 -32.59352 -48.60758 
9.252068 -10.8527 38.6759 
-73.48114 77.27382 0.7010723 
95.62085 62.65072 6.054451 
-69.08563 -48.30801 44.74735 
-26.81614 -64.49402 -21.15079 
-81.70124 10.85666 35.63818 
-49.69284 -27.67406 40.60297 
-58.97902 -53.38266 -0.949931 
-30.16203 21.99797 -49.33898 
109.5253 14.42356 3.645818 
111.1658 -17.25431 0.8169236 
8.499365 8.133965 38.05999 
-94.30389 59.73115 -16.82584 
85.61156 -24.97163 -40.71624 
38.75044 40.59301 36.73452 
-84.0806 25.06823 29.80818 
38.85899 95.26669 2.678372 
-13.17784 -29.00577 -47.68114 
-42.66261 -50.6886 33.37423 
-5.888665 -37.29068 37.15707 
-78.37891 -68.42998 42.26416 
96.27123 -46.7576 -31.66224 
-25.65661 6.463631 36.5358 
36.52821 61.93259 -18.10557 
36.91436 1.557668 -44.07335 
-2.09466 -78.39115 -3.788055 
-48.5912 -6.589655 42.09167 
-43.71196 1.478066 -43.77445 
81.1898 41.28675 -10.7509 
10.68735 36.43942 37.59734 
27.2977 -41.83941 -48.2967 
17.50048 -83.942 -5.999933 
99.4968 -18.28437 36.27792 
-6.679836 -37.81716 -47.90623 
-104.8385 -72.30976 27.44926 
42.37035 2.351093 35.43509 
97.62363 73.4285 24.70168 
-50.87088 77.58971 9.85117 
109.7559 19.60069 -4.548279 
-91.75782 23.25303 -26.41512 
-17.76863 -24.32097 37.84157 
60.09301 -26.74845 35.71701 
58.67376 -45.88492 -50.32959 
109.7277 -61.47964 20.62383 
-51.93624 -56.85598 -19.59261 
-61.922 -52.09251 -34.02714 
-73.59402 -16.7702 45.76625 
9.188919 -86.00626 18.40456 
38.71565 40.68904 -31.09094 
-75.97946 71.23569 -23.93537 
105.0124 4.03306 34.27505 
-73.76482 -67.83025 33.27728 
51.72874 -2.32369 35.95718 
